ply
format ascii 1.0
element vertex 801
property float x
property float y
property float z
property float nx
property float ny
property float nz
end_header
3.155568 -4.93679 469.8863 0.3641185 0.9313313 0.006304453
6.437521 -9.691921 459.0012 3.821371E-15 -8.742278E-08 -1
-4.222507 -7.52457 466.0297 -0.6128564 -0.7901245 -0.01050114
-13.49978 -10.75788 460.6356 -0.6944687 -0.7195205 0.001846039
3.618165 -7.51861 463.3393 -4.371139E-08 1 -8.742276E-08
-1.178565 -10.32151 446.0711 -0.5144954 -0.8574932 -2.56317E-08
-1.428811 -10.07794 443.709 -0.5144955 -0.8574932 8.1975E-07
-1.802883 -9.915497 441.5349 -0.514496 -0.8574928 6.6759E-07
7.544601 -14.22826 426.3384 -0.001699655 0.5712751 0.8207569
-1.225891 -10.92379 438.9203 0.00346621 0.5768542 0.8168398
2.410503 -12.82343 433.4826 0.00199769 0.4449801 0.8955383
3.050822 -12.23601 432.9802 0.005259392 0.6787392 0.7343606
3.961217 -11.16482 433.2141 0.006762263 0.9314782 0.3637343
1.097346 -10.11118 437.3154 -0.005318572 0.934101 0.3569691
0.732758 -10.06069 437.7008 -0.001955021 0.9151129 0.4031931
-0.6592045 -10.13105 438.9574 -0.004302205 0.8242454 0.5662163
8.215155 -13.9499 425.7274 -0.0008113639 0.7052007 0.7090073
9.776535 -14.27989 423.6933 0.004451673 0.7658004 0.643063
3.489276 -12.11241 432.5585 0.003062184 0.7154135 0.6986946
7.839931 -13.76369 426.2992 -0.001482097 0.7185835 0.6954391
9.164216 -14.53067 424.1964 -0.0005746256 0.64487 0.7642921
4.373144 -11.35837 432.5832 0.003692833 -0.9216659 -0.3879669
-0.0631628 -11.08829 437.4627 -0.005694349 -0.6555958 -0.7550905
-0.7693627 -10.46794 438.7453 -0.007811194 -0.7369686 -0.6758819
10.41235 -13.49699 424.0571 0.001243439 -0.9392403 -0.3432582
8.03039 -13.80644 426.0595 -0.007759904 -0.7037106 -0.7104444
0.93002 -9.391182 438.8932 -0.000701211 -0.9955451 -0.09428421
8.551911 -12.40788 427.4722 0.0005881011 -0.9816899 -0.1904853
6.120063 -11.17815 431.7977 0.00238514 -0.9979187 -0.06444041
11.36399 -5.439132 449.5369 0.5144961 0.8574927 -5.012046E-07
10.92404 -5.354177 447.6939 0.5144956 0.857493 3.332748E-07
5.973114 -7.004427 444.4912 0.5144963 0.8574926 -1.440216E-07
11.96544 -4.915161 447.7492 0.2669339 0.9637149 -8.425064E-08
3.5697 -7.755652 442.6008 0.2669337 0.9637149 -1.002069E-07
8.02809 -6.428125 444.8098 -4.371139E-08 1 -8.742277E-08
2.456952 -8.734871 440.1689 -4.371139E-08 1 -8.742277E-08
3.767912 -8.484483 440.4121 -4.371139E-08 1 -8.742276E-08
5.097452 -8.888829 438.7481 -4.371139E-08 1 -8.742276E-08
5.477894 -9.491571 436.8582 -4.371139E-08 1 -8.742277E-08
8.993444 -12.75013 426.4576 -0.000238551 0.9630536 0.2693096
10.48087 -13.3283 424.2662 0.002680149 0.9607242 0.2774918
10.68347 -6.643145 455.5984 -0.5144956 -0.857493 -2.383061E-06
10.99994 -12.59859 425.8336 -0.00053815 -0.9999978 -0.002034822
9.65513 -12.04602 427.9336 -0.001959068 -0.9999706 -0.007419676
9.239412 -10.49114 432.6003 4.371139E-08 -1 8.742277E-08
6.932536 -10.91103 432.2324 -0.0002660886 -0.9999999 -0.0004033711
8.595652 -8.783043 437.7958 4.371139E-08 -1 8.742277E-08
7.230813 -8.38429 439.4566 4.371139E-08 -1 8.742276E-08
6.020359 -8.000082 441.0183 4.371139E-08 -1 8.742277E-08
4.781468 -8.211515 440.8616 4.371139E-08 -1 8.742276E-08
2.433711 -9.40791 438.2548 0.001045701 -0.9999987 -0.001208416
0.9886091 -8.943262 440.1365 -0.0005123565 -0.9999977 -0.002114818
10.33 -5.479356 446.7456 -0.2669337 -0.9637149 8.846527E-08
8.421282 -8.775948 437.8498 -4.371139E-08 1 -8.742277E-08
7.178738 -8.371869 439.481 -4.371139E-08 1 -8.742277E-08
10.07455 -9.494577 435.154 -4.371139E-08 1 -8.742277E-08
11.39481 -10.39226 432.0613 -4.371139E-08 1 -8.742277E-08
11.94976 -10.2242 432.3445 -4.371139E-08 1 -8.742277E-08
10.84521 -8.466531 437.8539 -4.371139E-08 1 -8.742277E-08
12.29234 -12.61005 425.2928 -4.371139E-08 1 -8.742276E-08
12.31881 -11.75896 427.7534 -4.371139E-08 1 -8.742277E-08
12.94693 -10.96667 429.8216 -4.371139E-08 1 -8.742277E-08
13.52832 -10.3252 431.4691 -4.371139E-08 1 -8.742276E-08
15.20817 -11.47821 427.5027 -4.371139E-08 1 -8.742277E-08
15.18192 -10.63278 429.9664 -4.371139E-08 1 -8.742276E-08
16.85101 -10.92534 428.5015 -4.371139E-08 1 -8.742277E-08
11.95471 -9.376513 434.8033 -4.371139E-08 1 -8.742276E-08
11.30361 -8.600918 437.2947 -4.371139E-08 1 -8.742276E-08
11.50495 -7.731418 439.7443 -4.371139E-08 1 -8.742277E-08
14.7204 -8.386169 436.6578 -4.371139E-08 1 -8.742277E-08
16.30833 -7.827275 437.6944 -4.371139E-08 1 -8.742277E-08
18.73405 -10.51439 428.9998 -4.371139E-08 1 -8.742276E-08
18.47303 -9.717142 431.4103 -4.371139E-08 1 -8.742277E-08
20.37311 -9.948904 430.0367 -4.371139E-08 1 -8.742277E-08
17.76518 -8.056519 436.4916 -4.371139E-08 1 -8.742276E-08
19.99347 -8.404665 434.6592 -4.371139E-08 1 -8.742276E-08
21.64671 -9.312373 431.4146 -4.371139E-08 1 -8.742276E-08
21.15285 -8.650134 433.519 -4.371139E-08 1 -8.742277E-08
23.23899 -8.77474 432.3879 -4.371139E-08 1 -8.742277E-08
21.83014 -9.671486 430.3046 -0.3826775 0.923882 -8.076832E-08
15.59734 -6.628698 441.4357 -4.371139E-08 1 -8.742276E-08
14.5774 -6.258859 442.8854 0.0004615621 0.9999994 -0.001030862
13.5344 -5.845579 444.4698 0.000499087 0.9999762 -0.006890527
23.17276 -8.026635 434.6509 0.0009993766 0.9989689 -0.04538904
18.49839 -6.252079 441.5786 -0.001733315 0.9939737 -0.1096057
13.88115 -5.646311 444.9466 -0.0003992839 0.9999523 -0.009765551
14.43081 -4.760989 447.3861 -0.02054066 0.9951801 -0.09588914
23.60502 -8.887486 431.9565 4.371139E-08 -1 8.742276E-08
21.67823 -9.315339 431.4253 4.371139E-08 -1 8.742277E-08
19.73438 -8.509594 434.4811 4.371139E-08 -1 8.742277E-08
18.258 -8.952345 433.7405 4.371139E-08 -1 8.742276E-08
20.33541 -9.965197 430.0342 4.371139E-08 -1 8.742277E-08
18.47954 -9.717628 431.4374 4.371139E-08 -1 8.742277E-08
18.71755 -10.51564 429.0332 4.371139E-08 -1 8.742277E-08
14.82044 -8.294401 436.9182 4.371139E-08 -1 8.742276E-08
12.25052 -7.48764 440.2079 4.371139E-08 -1 8.742276E-08
14.06355 -9.756771 432.9526 4.371139E-08 -1 8.742277E-08
12.23116 -9.056915 435.6599 4.371139E-08 -1 8.742276E-08
10.38039 -8.993231 436.5274 4.371139E-08 -1 8.742277E-08
20.19081 -10.23426 429.3065 0.3826833 -0.9238796 8.07681E-08
16.91442 -11.34275 427.2975 0.3841201 -0.9232822 -0.001304935
14.26117 -5.758611 444.485 4.371139E-08 -1 8.742276E-08
8.039579 -15.42024 465.7914 0.0004668336 0.6079056 -0.7940092
12.42173 -6.630457 442.6019 -4.371139E-08 1 -8.742277E-08
13.73162 -4.569569 448.1407 -0.01062126 0.9975561 -0.06905852
11.47261 -6.393169 443.6717 4.371139E-08 -1 8.742277E-08
12.99047 -5.75513 444.9639 4.371139E-08 -1 8.742276E-08
13.71819 -4.562652 448.2033 0.003287466 -0.9933546 0.1150478
9.822371 -16.12923 463.4955 -0.008147799 0.6996371 -0.714452
21.17111 -7.038748 438.6432 -0.006238941 -0.9533275 0.301874
11.02432 -16.55516 461.6234 0.0009295608 -0.6640657 0.7476737
21.94397 -12.127 444.3948 0.09982001 -0.988207 0.1161164
26.91352 -14.00658 437.3369 0.0008666104 -0.7094568 0.7047483
26.60572 -12.61938 437.0643 -3.821371E-15 8.742278E-08 1
26.48325 -12.92185 437.4309 -3.821371E-15 8.742278E-08 1
24.77314 -12.48472 439.9785 -3.821371E-15 8.742278E-08 1
22.88498 -11.27738 442.3915 -3.821371E-15 8.742278E-08 1
17.09601 -7.121343 449.5306 0.00117404 -0.01354861 0.9999076
17.2726 -7.688071 449.5636 0.0002659598 -0.003409014 0.9999942
17.57925 -8.877194 449.7196 -3.821371E-15 8.742278E-08 1
21.94568 -10.56099 443.528 -3.821371E-15 8.742278E-08 1
25.64074 -12.90259 438.7942 -3.821371E-15 8.742278E-08 1
23.52085 -12.5206 442.0405 -3.821371E-15 8.742278E-08 1
16.10054 -9.09215 452.2497 -3.821371E-15 8.742278E-08 1
20.0775 -11.512 447.0993 3.090862E-08 -0.7071068 0.7071068
22.46631 -8.627559 441.5713 0.002585202 -0.07901578 0.99687
15.35954 -6.347555 451.9316 -0.001179614 -0.03183189 0.9994926
18.98924 -7.81525 446.8324 -0.002190951 -0.02200657 0.9997554
18.22511 -10.82955 449.7635 3.090863E-08 -0.7071071 -0.7071065
13.89668 -6.187553 454.261 0.002087547 0.01385934 -0.9999018
14.71753 -7.047118 453.3966 3.821371E-15 -8.742278E-08 -1
16.84575 -8.356836 450.6486 3.821371E-15 -8.742278E-08 -1
18.41629 -9.115047 448.5057 3.821371E-15 -8.742278E-08 -1
14.88082 -8.711003 454.0483 3.821371E-15 -8.742278E-08 -1
14.50771 -9.47156 455.0764 3.090862E-08 -0.7071069 -0.7071067
18.31614 -10.47419 449.419 3.821371E-15 -8.742278E-08 -1
21.94979 -11.70237 444.171 3.821371E-15 -8.742278E-08 -1
25.67712 -13.16201 438.8979 -0.002658585 -0.01385313 -0.9999005
18.59381 -8.446695 447.8475 3.821371E-15 -8.742278E-08 -1
21.30829 -10.09558 444.3306 3.821371E-15 -8.742278E-08 -1
24.732 -12.2382 439.9294 3.821371E-15 -8.742278E-08 -1
27.48917 -13.89349 436.3464 0.0003780184 -0.001830122 -0.9999983
24.53636 -11.5388 439.8626 3.821371E-15 -8.742278E-08 -1
23.61819 -9.10991 439.9694 -0.001343359 0.06455981 -0.9979129
27.11745 -10.40779 434.9994 0.008641216 0.05908239 -0.9982157
24.70434 -10.56565 439.0346 -0.0006962548 0.01050505 -0.9999446
26.52985 -10.40993 435.9639 0.005414036 0.02892051 -0.9995671
17.61791 -5.633182 444.5543 0.0002719675 0.8883837 -0.4591017
15.63444 -4.912439 447.2976 0.001956555 0.9033414 -0.4289179
15.14645 -4.721242 448.8436 0.004722179 0.8290793 -0.5591111
18.84211 -6.06822 443.0304 -0.0006466394 0.8753468 -0.4834951
26.00552 -8.715738 433.7418 -0.005887188 -0.7625853 0.6468609
10.08516 -16.1683 462.7776 0.003089452 -0.5971162 0.8021488
27.08038 -10.06066 434.757 -0.00302748 -0.1771518 0.9841789
17.49822 -6.401835 448.2876 0.002249102 0.2336029 -0.9723295
14.97008 -4.714961 449.9603 -0.003156306 0.7050958 -0.7091051
16.30698 -5.54485 449.2854 -0.003544731 0.4643188 -0.8856611
16.1108 -5.301091 449.0834 0.0003249451 0.577817 -0.8161663
22.16513 -7.500701 440.356 -0.00244267 0.5763028 -0.8172326
25.18038 -8.682224 436.272 -0.001496519 -0.5360501 0.8441849
26.82129 -9.53269 434.5119 0.002438787 -0.4253446 0.9050282
14.97966 -5.315521 451.6326 0.0005945036 -0.3384539 0.9409828
26.75885 -9.471806 434.5616 -0.0002777976 0.3841648 -0.9232645
14.23122 -5.07539 452.7625 0.006098149 0.3228477 -0.9464313
25.31377 -14.7534 437.1583 -1 -4.371139E-08 0
22.29798 -20.16276 436.4308 -1 -4.371139E-08 0
21.67064 -17.32504 435.2666 -0.999995 -0.0009247277 0.003028549
16.97445 -15.89033 436.9688 0.9962906 -6.035103E-05 -0.08605308
14.07311 -17.10165 451.7967 4.371139E-08 -1 8.742276E-08
14.70348 -18.19627 448.3868 4.371139E-08 -1 8.742277E-08
20.51979 -16.82102 450.2335 4.371139E-08 -1 8.742277E-08
15.84751 -15.78666 454.9592 4.371139E-08 -1 8.742277E-08
12.36071 -13.64754 462.4545 3.090862E-08 -0.7071069 -0.7071067
14.67929 -14.23132 458.9955 3.821371E-15 -8.742278E-08 -1
13.68073 -13.56509 460.2564 3.821371E-15 -8.742278E-08 -1
14.11562 -13.09552 459.2881 3.821371E-15 -8.742278E-08 -1
19.30453 -16.18416 452.5303 3.090862E-08 -0.7071069 -0.7071067
21.60902 -16.772 449.0966 3.821371E-15 -8.742278E-08 -1
8.802074 -7.622553 464.9337 3.821371E-15 -8.742278E-08 -1
10.9505 -8.663255 462.0043 3.821371E-15 -8.742278E-08 -1
10.48771 -7.592474 462.1682 -3.090861E-08 0.7071066 -0.7071069
13.14602 -9.857628 459.0829 3.821371E-15 -8.742278E-08 -1
16.35901 -11.91862 454.9803 3.821371E-15 -8.742278E-08 -1
12.71002 -8.797822 459.2092 3.821371E-15 -8.742278E-08 -1
17.45969 -13.13866 453.8586 3.821371E-15 -8.742278E-08 -1
17.90141 -13.18017 453.1611 3.821371E-15 -8.742278E-08 -1
21.04595 -15.0729 449.0774 3.821371E-15 -8.742278E-08 -1
23.14736 -16.42848 446.3984 3.821371E-15 -8.742278E-08 -1
25.02682 -17.77564 444.0767 3.821371E-15 -8.742278E-08 -1
17.48963 -10.38268 452.2892 3.821371E-15 -8.742278E-08 -1
19.72677 -11.73859 449.389 3.821371E-15 -8.742278E-08 -1
19.74614 -10.97464 448.9359 6.860604E-08 0.7071066 -0.7071069
22.3887 -13.22063 445.8657 3.821371E-15 -8.742278E-08 -1
24.45408 -13.06768 442.4132 3.821371E-15 -8.742278E-08 -1
19.09431 -19.40516 439.7417 0.7312565 -0.01365822 0.6819658
9.310238 -13.49564 464.0205 4.371139E-08 -1 8.742276E-08
9.901409 -14.2472 461.6209 4.371139E-08 -1 8.742277E-08
15.66177 -16.90279 444.3629 -0.574316 -0.002504546 0.8186299
10.11743 -12.77653 459.6594 -3.821371E-15 8.742278E-08 1
9.495787 -13.95389 461.3228 0.0005426858 0.0005445325 0.9999997
8.00319 -10.39162 463.7236 0.3162271 5.535177E-08 0.9486835
7.745276 -11.76048 466.0444 0.3162271 1.241878E-06 0.9486835
7.377937 -10.22692 466.2547 0.3162275 3.115101E-07 0.9486834
13.30807 -14.93941 444.1284 -0.7071067 4.767188E-07 0.7071068
9.132737 -14.58292 448.0923 0.7071065 1.100499E-07 0.7071071
9.571696 -13.77229 450.3091 0.7071065 5.260653E-08 0.7071071
-0.1736984 -44.275 470.9415 4.371139E-08 -1 8.742276E-08
-1.024813 -43.45699 473.6298 4.371139E-08 -1 8.742276E-08
7.441411 -38.19319 464.6783 -0.9669347 -0.004475928 -0.2549848
5.834356 -31.87376 462.3727 -0.9825146 -0.00147362 -0.1861797
6.467302 -31.58971 463.035 -0.9499106 0.0002206612 -0.3125217
4.274726 -32.46453 461.308 -0.9968703 -0.000744306 0.07905083
2.438973 -32.91697 460.6718 -0.9405674 -0.0007445153 0.3396063
-0.5234632 -34.55571 460.5651 -0.7232896 -0.002949291 0.6905386
-2.587038 -34.56164 461.233 -0.5212355 -0.003031036 0.8534075
-4.334123 -34.42764 462.3605 -0.2834865 -0.004255852 0.9589668
-6.556206 -31.67275 471.2334 0.8359779 -0.002565435 0.5487571
-5.801441 -31.01981 472.4946 0.9407272 -0.0101464 0.3390122
2.602611 -29.08258 475.2229 0.6750527 -0.003242005 -0.7377625
4.495238 -29.10637 474.4557 0.4654893 -0.003030442 -0.8850483
6.048967 -29.31608 473.3586 0.229566 -0.002533931 -0.9732898
7.47266 -30.88025 464.6559 -0.8326635 -0.001862495 -0.5537763
6.024544 -28.34965 461.8944 0.9518495 -4.502742E-05 0.3065658
4.88 -30.6926 461.2698 0.9986011 -0.004290152 0.05270176
3.143703 -31.23236 460.4118 0.9746338 0.001662064 -0.2237997
1.119874 -24.65811 457.7642 0.927518 0.004105721 -0.3737559
7.777071 -30.5701 465.5115 -0.7525294 0.0002197211 -0.6585586
-0.7433052 -24.86221 457.6515 -0.8068554 -0.01223445 0.5906224
-2.471206 -33.33338 461.2705 -0.5241959 0.000226964 0.8515977
-3.313995 -33.26035 461.7221 -0.4088727 -0.001474196 0.9125903
-3.233328 -26.33168 458.7986 -0.5354425 -0.002547156 0.8445678
-4.339426 -27.34272 459.8698 -0.3708614 0.002252687 0.9286855
-4.831346 -33.04767 462.974 -0.1541975 -0.000744394 0.9880398
-5.983784 -24.64417 460.1773 -0.1425707 -0.01483942 0.9896734
-6.608615 -24.46732 460.9628 -0.010712 -0.01417073 0.9998422
-7.112124 -24.24427 461.7966 0.1195463 -0.01225276 0.992753
-6.811157 -31.8113 467.2931 0.4913234 -0.0007438919 0.8709769
-6.713163 -31.1512 469.1716 0.7004472 -0.0001433815 0.7137043
-5.256277 -21.10292 470.3227 0.9937851 -0.01330939 0.1105171
-3.584118 -20.56395 471.2699 0.9876111 -0.01333813 -0.1563537
-2.639919 -20.34062 471.5773 0.9566831 -0.01204778 -0.2908819
1.208917 -28.26663 474.624 0.7792379 -0.000512324 -0.6267282
0.799037 -22.32476 472.5424 0.7500216 0.00215053 -0.6614099
4.050553 -28.21554 473.7242 0.4697679 -0.0007449405 -0.8827897
5.674433 -28.38997 472.5502 0.2183804 -0.002050087 -0.9758616
5.376145 -20.22532 468.8529 0.06991345 -0.01223184 -0.9974781
7.725313 -29.25412 469.2825 -0.3094634 -0.001743907 -0.9509098
7.605881 -29.24747 465.0818 0.7499384 0.001514324 0.6615059
4.536684 -34.37779 461.3986 0.9934011 -0.001668948 -0.1146802
0.6186543 -35.11265 460.6638 0.8105834 -0.003370169 -0.5856135
-5.796906 -31.20501 463.3721 -0.01236173 0.001725533 -0.9999221
-7.033387 -30.09812 467.0478 -0.5309144 -0.0008758037 -0.847425
-7.26027 -27.70425 467.4038 -0.6495876 -0.001340147 -0.7602856
0.1587467 -26.39241 473.9961 -0.8511032 -0.001964673 0.5249948
4.940162 -26.71092 472.4525 -0.3061757 -0.0009968063 0.9519745
5.549345 -26.48053 471.7585 -0.216965 -0.002115543 0.9761771
9.302839 -36.07085 469.5486 0.5521801 0.005852614 0.8337043
-6.803464 -35.1195 467.4473 -0.3930516 -0.0001230621 -0.9195164
-6.77653 -31.87236 470.6945 -0.7991618 -0.003265828 -0.6011072
-6.636476 -34.17344 470.9893 -0.764756 -0.004424025 -0.6443049
-0.9616818 -46.63921 464.3386 -4.371139E-08 1 -8.742277E-08
1.685045 -42.14921 476.3955 -4.371139E-08 1 -8.742277E-08
-0.840766 -43.90258 472.2376 -4.371139E-08 1 -8.742276E-08
11.05015 -29.55178 438.4182 4.371139E-08 -1 8.742277E-08
12.2448 -31.0229 433.7073 -0.0006280057 -0.9999988 0.001437461
12.00372 -31.00533 433.8473 0.0008888504 -0.9999008 0.01405924
7.056088 -28.82667 441.9961 -0.0002790036 -0.99998 0.00631458
25.65158 -27.15685 439.9843 0.004202838 -0.9998176 -0.01863535
19.32328 -25.24004 447.8709 0.00168326 -0.9999634 -0.008392116
5.035985 -24.45037 455.4442 4.371139E-08 -1 8.742276E-08
18.3841 -28.45929 438.8533 -4.371139E-08 1 -8.742277E-08
26.67888 -27.07199 439.7478 -0.0001902254 -0.9931841 -0.1165557
13.18653 -31.46345 432.0503 -0.001249627 0.9996144 -0.02774193
9.555085 -21.92835 461.0671 -4.371139E-08 1 -8.742276E-08
15.59808 -31.06532 430.81 0.9207464 0.3901533 0.002560821
18.85592 -24.38918 450.4533 0.007264534 0.9989703 0.04478411
18.68126 -24.08996 451.2814 -0.0008706974 0.9876866 0.1564434
6.941685 -29.82224 437.2134 0.0004523091 0.7990985 -0.6012
3.594299 -18.29011 433.9386 -3.821371E-15 8.742278E-08 1
3.652998 -19.55781 434.5423 -3.821371E-15 8.742278E-08 1
2.861609 -18.55725 435.2809 -3.821371E-15 8.742278E-08 1
-3.706452 -11.17653 468.3111 1 4.371139E-08 0
-8.956465 -11.51636 464.7121 -1 -4.371139E-08 0
-11.38517 -12.09607 463.1609 -1 -0.0002475 -8.522868E-05
27.77225 -23.00307 440.9108 -0.002491588 -0.007802588 -0.9999664
2.693234 -8.702788 458.728 -4.371139E-08 1 -8.742276E-08
-6.474147 -10.36189 457.2935 -4.371139E-08 1 -8.742277E-08
-5.122712 -10.15824 457.3861 -4.371139E-08 1 -8.742276E-08
-0.7258546 -14.87297 439.0984 -3.821371E-15 8.742278E-08 1
9.402934 -18.34497 424.4964 0.0006368673 0.001584481 0.9999986
-2.49142 -18.30873 443.8932 3.821371E-15 -8.742278E-08 -1
-1.706955 -20.46877 443.8057 3.821371E-15 -8.742278E-08 -1
-1.524414 -19.4436 442.9424 3.821371E-15 -8.742278E-08 -1
-5.155653 -10.93915 455.1625 4.371139E-08 -1 8.742277E-08
-0.4105501 -8.344982 460.9423 4.371139E-08 -1 8.742276E-08
0.09689856 -18.80007 439.9433 3.821371E-15 -8.742278E-08 -1
8.908289 -7.251803 454.638 0.5144948 0.8574935 -7.937122E-07
-0.6725538 -10.75401 450.4438 -0.5144949 -0.8574935 4.013496E-07
5.657831 -8.103859 450.9783 0.5144951 0.8574933 -9.323322E-07
6.249062 -12.38929 429.3979 0.009809292 0.8653658 0.5010448
6.633611 -9.231093 437.188 -4.371139E-08 1 -8.742277E-08
10.23829 -12.65952 425.9225 -0.003074404 0.999274 0.03797582
7.31708 -9.524576 436.1149 4.371139E-08 -1 8.742277E-08
16.20753 -9.202827 433.7388 -4.371139E-08 1 -8.742276E-08
14.7945 -9.559119 433.2567 4.371139E-08 -1 8.742276E-08
14.50887 -11.05768 429.0121 4.371139E-08 -1 8.742276E-08
18.52763 -9.906623 448.741 -3.821371E-15 8.742278E-08 1
18.38888 -9.488761 448.7566 3.821371E-15 -8.742278E-08 -1
22.95384 -10.49206 441.8658 3.821371E-15 -8.742278E-08 -1
25.16886 -9.403322 437.5375 0.008441142 0.1577191 -0.987448
25.58674 -18.87767 442.3948 4.371139E-08 -1 8.742276E-08
15.27024 -17.67397 449.6939 4.371139E-08 -1 8.742276E-08
14.31497 -12.12143 458.4256 3.821371E-15 -8.742278E-08 -1
24.31614 -13.25519 440.6306 4.922941E-08 1 -9.417129E-08
7.538766 -7.038869 464.8628 -4.371139E-08 1 -8.742276E-08
2.580153 -25.13619 458.4019 0.9835976 -0.0003854302 -0.1803764
-5.661927 -25.54357 460.2631 0.1830501 -0.000136839 -0.9831036
-7.57048 -24.63546 463.5993 -0.3414581 -0.0003894076 -0.9398969
2.93622 -20.68086 471.2029 -0.4972921 -0.0003843379 0.8675831
21.76235 -27.77574 439.6224 4.371139E-08 -1 8.742277E-08
21.93065 -28.14328 438.4934 4.371139E-08 -1 8.742277E-08
23.08843 -27.77938 439.1227 4.371139E-08 -1 8.742276E-08
15.51348 -29.78832 436.0853 4.371139E-08 -1 8.742276E-08
15.60446 -30.22482 434.7847 4.371139E-08 -1 8.742277E-08
16.71187 -29.84952 435.4657 4.371139E-08 -1 8.742277E-08
5.2732 -25.28531 452.9332 4.371139E-08 -1 8.742277E-08
1.485854 -24.36298 457.0074 4.371139E-08 -1 8.742276E-08
4.892447 -26.87976 448.4454 4.371139E-08 -1 8.742277E-08
-5.287773 -24.64924 458.6748 0.004704779 -0.9997398 0.02232208
5.005388 -28.46749 443.7627 0.003593894 -0.9999794 0.005317973
-2.542428 -26.04487 453.5023 -0.001770523 -0.9951048 0.09880975
-3.211202 -20.15557 470.9526 0.7071068 -0.7071068 6.181723E-08
11.27966 -31.17974 433.4572 0.0007972986 -0.9854344 0.1700543
15.95916 -29.72057 436.0867 -4.371139E-08 1 -8.742276E-08
16.80828 -29.87023 435.3391 -4.371139E-08 1 -8.742276E-08
15.6137 -30.27577 434.6025 -4.371139E-08 1 -8.742277E-08
15.94081 -26.67204 444.9424 -4.371139E-08 1 -8.742277E-08
23.03767 -27.77197 439.132 -4.371139E-08 1 -8.742276E-08
21.88514 -28.14921 438.4621 -4.371139E-08 1 -8.742276E-08
17.73135 -23.64545 452.8712 -0.004237278 -0.983407 -0.1813638
3.11124 -18.52503 473.2698 -0.004440141 -0.9976313 -0.0686456
11.15025 -28.03774 442.7451 -4.371139E-08 1 -8.742276E-08
4.593745 -24.80235 454.5548 -4.371139E-08 1 -8.742277E-08
0.4546175 -24.85599 455.9257 -4.371139E-08 1 -8.742277E-08
-7.22301 -23.46593 462.7925 -4.371139E-08 1 -8.742277E-08
6.661052 -28.80857 442.1635 -0.0001077574 1 -9.187375E-05
-1.360712 -26.76039 450.3192 -0.002812703 -0.9119408 0.4103122
18.72876 -24.91448 449.0157 -4.371139E-08 1 -8.742277E-08
12.75505 -21.79132 460.0599 0.002107406 -0.9790252 -0.2037283
3.004863 -28.38284 443.6926 -0.005230337 -0.885309 0.4649739
9.083241 -30.39157 436.4742 -0.002155367 0.9781716 -0.2077874
9.202238 -20.83927 464.3147 0.00125072 0.9981183 0.06130503
9.339849 -20.74384 464.4936 0.002394611 0.9914323 0.1305997
18.06482 -22.73903 453.9625 0.003507138 -0.8219934 -0.5694863
-3.523602 -25.81512 450.926 -0.0002978095 -0.591731 0.8061355
-2.300485 -26.34459 449.514 -0.01249926 -0.6633925 0.7481673
2.890237 -28.30469 444.238 -0.004051624 0.9183357 -0.3957818
18.47479 -22.51313 453.7696 -0.005951659 -0.7496046 -0.6618591
18.6644 -22.37646 453.6635 -0.001662221 -0.6934103 -0.7205411
-3.159365 -25.84707 450.0495 -0.002777323 -0.5286102 0.8488601
-3.112798 -25.92148 450.1789 -0.00228622 -0.5912195 0.8065074
18.0831 -22.53706 454.155 0.005768541 0.7945979 0.6071086
13.99939 -20.71352 460.2952 0.001385162 -0.7020397 -0.7121365
1.266286 -27.26703 443.2703 0.004560728 -0.4117882 0.9112682
-7.257779 -24.5776 456.8862 -0.005687665 0.7126887 -0.7014573
18.84605 -21.60376 453.8998 -0.003123127 -0.5024781 -0.8645843
27.04306 -24.32919 442.2718 -0.006664839 -0.3826029 -0.9238889
26.48121 -24.34092 443.0138 0.0004736875 -0.4939696 -0.8694791
22.79123 -17.96288 446.2358 0.000427174 0.708347 0.7058643
19.87627 -16.89885 450.3995 -3.090863E-08 0.7071071 0.7071065
20.84317 -19.02697 449.9969 -3.821371E-15 8.742278E-08 1
1.281228 -26.12765 442.0551 -0.001571748 -0.02854355 0.9995914
1.758076 -25.48716 440.9066 0.0005548873 -0.006089068 0.9999813
3.024904 -25.95763 439.0976 0.000804264 -0.004227112 0.9999908
-8.727756 -21.32049 455.7049 -3.821371E-15 8.742278E-08 1
6.752558 -24.38552 432.1513 -3.821371E-15 8.742278E-08 1
2.030502 -22.85695 439.0085 -3.821371E-15 8.742278E-08 1
1.155619 -21.66855 439.7795 -3.821371E-15 8.742278E-08 1
18.84458 -21.83513 453.7855 0.005710324 0.5465642 0.8373978
20.45949 -21.34384 451.7074 0.0006206598 -0.2473492 -0.9689262
14.27037 -19.54699 460.5449 0.001791845 -0.3759942 -0.9266203
26.96232 -23.53783 442.411 0.004644163 -0.1920554 -0.9813731
26.89414 -23.28407 442.4493 0.0073139 -0.0960632 -0.9953484
-8.653341 -11.2857 464.8777 0.9999917 0.003671507 -0.001817976
-1.472261 -11.57308 469.9756 1 4.371139E-08 0
-1.037056 -8.842348 469.5697 -1 -4.371139E-08 0
-1.737532 -12.94671 470.1286 -1 -4.371139E-08 0
-3.522441 -25.732 450.6845 0.001842373 0.5416253 -0.8406181
27.48838 -22.05731 440.8519 3.821371E-15 -8.742278E-08 -1
15.96982 -17.64878 457.1838 -3.821371E-15 8.742278E-08 1
10.54243 -17.17707 465.7557 0.008839943 -0.07804427 -0.9969107
15.95774 -19.6927 458.1424 -0.008462017 0.2361461 0.9716807
5.824738 -8.443275 458.3263 -4.371139E-08 1 -8.742277E-08
-2.375973 -11.21299 453.3114 -4.371139E-08 1 -8.742276E-08
-0.6541967 -8.217903 461.3701 -4.371139E-08 1 -8.742277E-08
0.08416939 -7.728025 462.5198 -4.371139E-08 1 -8.742277E-08
-5.740391 -11.38229 454.0609 -4.371139E-08 1 -8.742277E-08
-10.00495 -10.46074 458.3088 -4.371139E-08 1 -8.742276E-08
-4.42935 -12.21321 449.4803 0.5144955 0.8574932 4.913032E-07
6.638851 -17.87773 428.7462 4.70621E-05 0.0002543572 1
-0.7678746 -16.1537 439.8736 -3.821371E-15 8.742278E-08 1
-3.643159 -11.5921 442.1301 -0.0008154848 0.1303076 0.9914733
-1.819781 -7.286306 464.5042 -4.371139E-08 1 -8.742277E-08
0.4005394 -6.964033 464.6207 -4.371139E-08 1 -8.742276E-08
2.004176 -6.189396 470.9484 0.9748606 0.2228158 -0.0001211747
-4.12795 -8.296699 467.2023 0.9829454 0.183876 0.002811096
4.670463 -24.46277 435.6092 3.821371E-15 -8.742278E-08 -1
3.762632 -24.6117 437.1718 3.821371E-15 -8.742278E-08 -1
5.035169 -25.60911 435.6469 3.821371E-15 -8.742278E-08 -1
-6.371857 -17.66147 449.8641 3.821371E-15 -8.742278E-08 -1
-6.89854 -18.39993 451.1305 3.821371E-15 -8.742278E-08 -1
-5.749844 -18.94632 449.5587 3.821371E-15 -8.742278E-08 -1
-7.833663 -19.56176 453.2964 3.821371E-15 -8.742278E-08 -1
-8.369488 -20.25394 454.5522 3.821371E-15 -8.742278E-08 -1
-7.202529 -20.78883 452.9442 3.821371E-15 -8.742278E-08 -1
-13.07699 -12.84416 458.1408 3.821371E-15 -8.742278E-08 -1
-6.189928 -11.95648 452.5909 4.371139E-08 -1 8.742276E-08
5.44347 -8.28044 458.9705 4.371139E-08 -1 8.742277E-08
-8.162547 -10.58836 457.2897 4.371139E-08 -1 8.742276E-08
-6.784946 -9.331953 460.4286 4.371139E-08 -1 8.742277E-08
1.845839 -9.161168 457.7409 4.371139E-08 -1 8.742276E-08
0.9386435 -8.955529 458.6725 4.371139E-08 -1 8.742277E-08
1.227408 -7.249705 463.5174 4.371139E-08 -1 8.742277E-08
6.464977 -17.3682 428.7685 3.821371E-15 -8.742278E-08 -1
7.356328 -17.36511 427.3132 0.0002839358 -0.0007346361 -0.9999997
6.172884 -24.97012 433.439 3.821371E-15 -8.742278E-08 -1
-4.587245 -17.79339 447.0266 3.821371E-15 -8.742278E-08 -1
1.431383 -9.653054 449.1893 0.5144955 0.8574932 2.658501E-07
-9.211637 -9.131922 462.1252 0.2768836 0.960902 -0.001676993
-6.306984 -8.698608 465.6094 0.905411 0.4245355 0.0007098168
-7.298702 -8.805681 464.7144 0.810361 0.5859216 0.003310297
1.454914 -5.729219 469.89 0.7557809 0.6548242 -0.0008181015
-7.284733 -8.644413 464.4269 0.7119721 0.7022032 -0.002545813
-2.072952 -6.771923 467.3125 0.5859838 0.8102788 0.008440196
-6.949156 -8.467576 464.4695 0.6516795 0.7584938 0.001039079
-2.867983 -11.18534 447.0018 -0.5144948 -0.8574935 -2.655034E-07
-9.278989 -9.509596 463.53 -0.8355591 -0.5493869 0.003886635
-9.184227 -9.291615 463.2615 -0.6893044 -0.72446 0.00415173
-3.96857 -7.358456 465.6172 0.3737388 0.9274982 -0.008142651
-6.941208 -8.378534 464.1102 0.5094923 0.8604714 -0.002551087
-1.255238 -10.46902 439.2612 0.0001259302 0.7039422 0.7102574
6.757768 -11.65285 430.2473 -0.01203654 -0.9889627 -0.147675
4.033509 -9.121874 438.4641 -4.371139E-08 1 -8.742276E-08
9.233627 -11.30239 430.2476 -0.000744986 -0.9999996 -0.0004678711
3.079814 -9.305845 438.3127 4.371139E-08 -1 8.742277E-08
11.24206 -12.48774 426.0352 -4.371139E-08 1 -8.742277E-08
11.6625 -9.044008 435.8762 -4.371139E-08 1 -8.742277E-08
14.39165 -11.11031 428.8717 -4.371139E-08 1 -8.742276E-08
13.22824 -11.51005 428.1405 -4.371139E-08 1 -8.742277E-08
12.66819 -8.203959 437.9436 -4.371139E-08 1 -8.742277E-08
20.63594 -9.012513 432.6578 -4.371139E-08 1 -8.742276E-08
19.49407 -9.388954 431.9863 -4.371139E-08 1 -8.742277E-08
14.94611 -5.447773 445.1347 -0.0001040078 0.9999633 -0.008566624
19.5273 -9.385233 432.0157 4.371139E-08 -1 8.742276E-08
20.67929 -9.013147 432.6709 4.371139E-08 -1 8.742276E-08
13.49865 -7.898789 438.5541 4.371139E-08 -1 8.742276E-08
17.01315 -10.5547 429.5485 4.371139E-08 -1 8.742277E-08
12.74396 -12.52322 425.4091 4.371139E-08 -1 8.742277E-08
12.70292 -11.8542 427.3663 4.371139E-08 -1 8.742277E-08
19.44145 -6.302983 442.1125 -0.01549409 -0.8756111 0.4827684
25.55321 -12.44299 438.6833 -3.821371E-15 8.742278E-08 1
18.14416 -8.217259 448.4343 0.0003589608 -0.001165062 0.9999993
22.63998 -8.77327 441.3834 0.006832208 -0.06079141 0.9981271
15.59202 -9.511625 453.3303 3.821371E-15 -8.742278E-08 -1
25.67897 -12.25513 438.3945 3.821371E-15 -8.742278E-08 -1
14.87604 -4.674376 448.0903 0.003366278 0.9292244 -0.3695007
14.77958 -5.651933 452.4341 -0.001125641 0.1410532 -0.9900014
16.60496 -5.258451 447.0265 -0.0006521681 0.772943 -0.6344752
14.23403 -16.82753 452.533 4.371139E-08 -1 8.742277E-08
14.28978 -9.961338 457.2749 3.821371E-15 -8.742278E-08 -1
23.36963 -15.603 445.5805 3.821371E-15 -8.742278E-08 -1
24.16543 -15.77983 444.3803 3.821371E-15 -8.742278E-08 -1
23.64432 -13.32441 443.8753 3.821371E-15 -8.742278E-08 -1
16.6362 -18.87894 435.154 -0.3880277 0.008917126 0.9216046
9.76029 -12.65446 460.1745 0.0002489484 -6.563913E-05 1
7.644014 -36.30883 475.7203 -4.371139E-08 1 -8.742277E-08
1.130089 -29.71222 459.3968 0.8944306 -0.0002273335 -0.4472067
-0.8483629 -31.5589 460.0721 0.7197931 0.002381484 -0.6941846
-2.624088 -31.79638 460.7329 0.5332136 0.002850783 -0.8459759
-6.479804 -31.06556 464.7789 -0.2198844 0.002155104 -0.9755236
-2.759317 -27.15629 473.523 -0.9868618 0.0004307058 0.1615665
0.2217093 -25.11258 473.5647 -0.8238984 -0.005020162 0.5667153
1.711745 -26.61751 473.9504 -0.6985605 0.003239562 0.7155437
5.52036 -25.2163 471.1878 -0.1656843 -0.004322021 0.9861694
7.09072 -26.82429 469.4623 0.1781444 0.0004709622 0.9840043
7.265625 -24.58717 466.8902 0.4062535 0.004434291 0.9137496
-6.512252 -37.39472 470.8075 -0.6491703 0.003614472 -0.7606345
18.18765 -27.20649 442.5932 4.371139E-08 -1 8.742277E-08
19.49412 -27.23481 442.0291 4.371139E-08 -1 8.742276E-08
18.73382 -29.1641 436.7094 4.371139E-08 -1 8.742276E-08
10.84279 -28.88952 440.417 4.371139E-08 -1 8.742276E-08
7.625563 -28.34982 443.1702 4.371139E-08 -1 8.742276E-08
7.299428 -28.58943 442.595 4.371139E-08 -1 8.742276E-08
-1.595949 -26.46852 451.8448 -2.905063E-05 -0.9909881 0.1339507
-1.116402 -26.5895 451.3613 -0.002887975 -0.9928778 0.1191027
0.3070947 -27.11114 449.3294 -0.002607692 -0.992882 0.1190744
4.755151 -28.4408 443.9236 0.002061846 -0.9996777 0.02530557
3.395551 -27.93015 445.9099 -0.0003377656 -0.9997973 0.02013244
20.74544 -26.83092 442.74 4.371139E-08 -1 8.742276E-08
19.63045 -26.79215 443.2638 4.371139E-08 -1 8.742276E-08
18.88873 -24.89546 449.0137 0.0009939317 -0.9999703 -0.007647865
19.24762 -24.75708 449.2773 0.001711486 -0.9995109 -0.03122643
20.76629 -25.67522 446.0773 -0.001829361 -0.9999537 -0.009448399
11.51324 -21.94889 460.2767 -0.0007329925 -0.999715 -0.02386358
4.384433 -19.28956 470.6296 -0.001069703 -0.9997068 -0.02419173
8.5987 -21.47159 462.7654 0.001014744 -0.9999689 -0.00781508
-6.487589 -21.26406 468.9435 0.7071066 -0.7071069 6.181725E-08
-1.841734 -26.45657 451.8453 -0.001440157 -0.9597775 0.2807584
-1.719989 -26.58592 451.1651 -0.0003542204 -0.9452127 0.3264552
18.17638 -30.23703 432.4667 -0.8232523 -0.5676657 -0.003375349
15.48841 -28.16181 440.7849 -4.371139E-08 1 -8.742277E-08
18.3548 -27.19415 442.5364 -4.371139E-08 1 -8.742276E-08
19.48009 -27.4525 441.3715 -4.371139E-08 1 -8.742277E-08
18.85922 -28.75605 437.8167 -4.371139E-08 1 -8.742276E-08
20.24339 -27.2109 441.7913 -4.371139E-08 1 -8.742277E-08
16.81953 -23.72046 453.152 -0.003328078 -0.999178 -0.04040185
7.578849 -27.90938 444.435 -4.371139E-08 1 -8.742276E-08
9.045538 -29.89234 438.1381 -0.001015968 0.9999117 -0.01325464
-3.692095 -24.67937 457.9679 -4.371139E-08 1 -8.742277E-08
-2.37217 -26.43319 451.0371 0.009494016 -0.8570032 0.5152237
17.53991 -23.35744 453.5564 0.0001356349 -0.9450004 -0.3270692
6.802018 -20.97821 464.8405 -4.371139E-08 1 -8.742277E-08
-0.9604353 -26.67912 451.02 -0.004893835 0.9866575 -0.1627364
23.85783 -26.18295 443.3809 -0.003117918 0.9976433 0.06854343
21.80603 -25.3019 446.6519 -0.001458887 0.9885914 0.1506155
15.73317 -23.10385 455.2945 -0.001310061 0.9933319 0.1152821
-2.326848 -26.43072 450.2695 -0.0001093123 -0.7721949 0.6353858
-3.518646 -25.95261 453.4969 -0.0007076769 0.9239791 -0.3824424
18.16768 -23.09999 453.3912 -0.007892502 0.8818163 0.4715271
19.51262 -23.38541 451.767 -0.001555947 -0.8522088 -0.5231995
-3.597677 -25.4626 450.1518 0.002444615 -0.4009462 0.9160984
-3.447006 -25.4469 449.8169 -0.01087655 -0.3633495 0.9315894
-2.594807 -25.75479 448.5916 -0.004690409 -0.390853 0.9204412
-7.142379 -24.6616 457.1623 -0.004092754 0.7652498 -0.6437204
18.57353 -22.06155 453.9857 -0.0007511999 0.6218252 0.7831557
18.67096 -21.97368 453.9348 -0.004980693 -0.6172469 -0.7867538
18.5769 -21.83134 454.1323 -0.007284414 -0.5906114 -0.8069233
18.94741 -16.55954 451.7271 -3.090864E-08 0.7071072 0.7071064
23.55674 -19.34702 445.7483 -3.821371E-15 8.742278E-08 1
25.51534 -20.36174 443.134 3.821371E-15 -8.742278E-08 -1
-3.170798 -23.40514 447.793 -3.821371E-15 8.742278E-08 1
-3.040781 -21.40851 446.4794 -3.821371E-15 8.742278E-08 1
4.896473 -18.8497 432.1238 -3.830541E-05 8.702851E-05 1
5.907211 -20.45645 431.362 -3.821371E-15 8.742278E-08 1
4.840075 -19.4355 432.539 -3.821371E-15 8.742278E-08 1
5.2376 -21.66645 433.1216 -3.821371E-15 8.742278E-08 1
-5.342113 -18.28498 448.509 -3.821371E-15 8.742278E-08 1
-6.093406 -17.94411 449.5461 -3.821371E-15 8.742278E-08 1
-11.73511 -13.21136 456.1352 -3.821371E-15 8.742278E-08 1
-11.03562 -14.7515 455.8442 -3.821371E-15 8.742278E-08 1
-5.903 -25.05998 454.8694 0.0005061197 0.6963736 -0.7176793
6.39371 -29.48349 436.9973 0.001306213 0.6185912 -0.7857119
6.975525 -29.75182 436.4023 -0.001389511 0.648295 -0.761388
20.32681 -22.36971 451.6751 0.007656623 0.5483356 0.8362234
14.04174 -18.87432 460.8809 0.002248209 -0.20369 -0.9790329
14.30112 -18.79026 460.47 -0.004994074 -0.1424042 -0.989796
-7.247434 -9.847088 465.478 0.99923 0.0391724 -0.002230472
-0.7563419 -10.30738 470.1406 -1 -4.371139E-08 0
-7.803331 -12.29693 465.7184 -1 -4.371139E-08 0
-10.26488 -20.25613 457.6443 3.821371E-15 -8.742278E-08 -1
-6.642253 -23.58877 453.6196 0.0001946018 0.1143687 -0.9934384
-5.326984 -24.60606 452.2742 -0.003611833 0.2727132 -0.9620886
0.7053342 -10.13538 455.3029 -4.371139E-08 1 -8.742277E-08
-0.5835042 -9.657499 457.1654 -4.371139E-08 1 -8.742276E-08
4.582429 -7.988795 460.1037 -4.371139E-08 1 -8.742277E-08
-3.967608 -9.866692 457.8064 -4.371139E-08 1 -8.742277E-08
-7.359981 -10.7669 456.4446 -4.371139E-08 1 -8.742276E-08
-5.342072 -9.190154 460.2771 -4.371139E-08 1 -8.742276E-08
-2.169122 -11.24037 449.4657 0.5144954 0.8574932 3.563992E-07
2.513481 -17.38957 435.2043 -3.821371E-15 8.742278E-08 1
1.762756 -17.09254 436.2647 -3.821371E-15 8.742278E-08 1
-3.787636 -13.14202 443.1365 -3.821371E-15 8.742278E-08 1
-4.183007 -13.14641 443.7837 -3.821371E-15 8.742278E-08 1
5.649704 -16.69457 429.7122 0.003642347 0.000122285 0.9999934
4.188942 -14.89559 431.1266 0.002239081 0.02663734 0.9996427
-7.113153 -8.614407 462.6258 0.02505958 0.9996836 -0.002198822
-8.48063 -9.812658 464.557 0.9830336 0.1834108 0.002339822
0.3046973 -20.08843 440.3153 3.821371E-15 -8.742278E-08 -1
0.8714639 -21.48247 440.1602 3.821371E-15 -8.742278E-08 -1
-3.857287 -15.29639 444.4586 3.821371E-15 -8.742278E-08 -1
-4.382885 -16.01648 445.713 3.821371E-15 -8.742278E-08 -1
-3.253093 -17.00822 444.4178 3.821371E-15 -8.742278E-08 -1
-1.73412 -21.28602 444.3008 3.821371E-15 -8.742278E-08 -1
-2.50492 -21.61634 445.7401 3.821371E-15 -8.742278E-08 -1
-1.384136 -22.59411 444.4518 3.821371E-15 -8.742278E-08 -1
-4.163972 -8.412058 467.2206 -0.983151 -0.1825989 -0.008470455
-1.350794 -10.84474 454.0331 4.371139E-08 -1 8.742277E-08
-3.243199 -10.25397 456.446 4.371139E-08 -1 8.742277E-08
-7.115625 -11.61881 453.9125 4.371139E-08 -1 8.742277E-08
3.172858 -7.393866 462.3814 4.371139E-08 -1 8.742276E-08
-2.030103 -8.057795 462.3733 4.371139E-08 -1 8.742276E-08
-9.812571 -10.08664 459.3547 4.371139E-08 -1 8.742276E-08
1.027936 -19.50736 438.8153 3.821371E-15 -8.742278E-08 -1
-2.12982 -16.30544 442.1982 3.821371E-15 -8.742278E-08 -1
-13.24074 -11.25353 461.5402 0.9523983 0.3048525 -0.001563992
-8.5292 -9.509016 464.3034 0.9265465 0.3761658 0.003305335
-13.20947 -10.9272 461.2649 0.8755208 0.4831782 0.001502313
-13.09211 -10.80307 461.2278 0.8312582 0.5558859 0.000794747
-8.425236 -9.110575 463.9008 0.7706329 0.6372794 0.0002567917
-13.01076 -10.53063 460.7975 0.6456268 0.7636506 -0.001952201
2.571073 -9.954944 454.4403 -0.5144948 -0.8574935 -3.1878E-07
-3.495958 -11.61255 448.0618 -0.5144951 -0.8574933 -1.750022E-07
-4.057691 -7.640037 466.5723 -0.7749033 -0.6320563 0.005463574
0.5423222 -12.86856 436.1125 0.001571546 -0.2244476 -0.9744849
4.76217 -8.371802 450.193 0.514495 0.8574934 2.013959E-07
-12.83034 -10.37514 460.5284 0.5336107 0.845723 -0.00350356
4.884994 -10.40404 461.9259 3.821371E-15 -8.742278E-08 -1
4.87403 -7.341512 463.3902 -4.371139E-08 1 -8.742276E-08
5.154438 -8.114409 449.5207 -0.5144935 -0.8574943 1.084289E-06
2.496694 -10.40194 435.6885 0.002568137 0.9597576 0.2808181
7.310665 -12.29332 428.5768 0.0001028198 0.947233 0.3205458
5.668834 -11.87435 430.6653 -0.005742647 -0.9204301 -0.390865
6.544378 -9.015195 437.8476 -4.371139E-08 1 -8.742277E-08
5.712433 -10.20844 434.6909 -4.371139E-08 1 -8.742276E-08
4.19569 -13.63932 467.036 -4.371139E-08 1 -8.742277E-08
5.639932 -10.00473 435.3398 4.371139E-08 -1 8.742276E-08
5.931558 -8.73414 438.9204 4.371139E-08 -1 8.742277E-08
7.516106 -10.81907 432.2531 0.0003686367 0.9999997 0.0007111203
9.3912 -10.36342 432.8841 -4.371139E-08 1 -8.742277E-08
13.42178 -9.932227 432.6491 -4.371139E-08 1 -8.742277E-08
15.91529 -8.867002 434.8214 -4.371139E-08 1 -8.742277E-08
16.41081 -10.42695 430.1106 -4.371139E-08 1 -8.742277E-08
17.17156 -8.454181 435.5872 4.371139E-08 -1 8.742277E-08
14.57803 -8.768232 435.6322 4.371139E-08 -1 8.742276E-08
14.50769 -9.246034 434.2713 4.371139E-08 -1 8.742277E-08
17.3148 -10.08459 430.8018 4.371139E-08 -1 8.742277E-08
13.6319 -11.72289 427.4048 4.371139E-08 -1 8.742276E-08
16.00849 -11.41918 427.4097 4.371139E-08 -1 8.742277E-08
15.12367 -11.07996 428.7207 4.371139E-08 -1 8.742277E-08
13.00866 -10.65912 430.7224 4.371139E-08 -1 8.742277E-08
11.5098 -10.65512 431.2869 4.371139E-08 -1 8.742276E-08
18.41221 -8.022659 436.3513 -4.371139E-08 1 -8.742276E-08
21.69718 -9.808931 443.5183 -3.821371E-15 8.742278E-08 1
23.48999 -9.555614 440.454 -0.0002214422 -0.005693637 0.9999838
15.83213 -8.505362 452.3835 3.821371E-15 -8.742278E-08 -1
26.29452 -12.05799 437.2819 -0.0003089163 0.0008804359 -0.9999996
21.42619 -9.032798 443.5378 -0.0004596054 0.01514368 -0.9998853
23.46714 -7.750505 436.9368 -0.0006641957 0.827274 -0.5617983
23.7984 -8.793015 439.3664 -0.004880821 -0.232164 0.9726644
23.39902 -8.260851 439.3932 0.0043173 0.3881297 -0.9215947
16.77234 -5.983607 449.0943 0.006798497 0.3370905 -0.9414477
16.81555 -5.747401 448.601 0.0009279305 0.4603257 -0.8877497
21.16571 -13.38813 441.4067 -4.371139E-08 1 -8.742276E-08
18.05855 -12.30924 452.4243 3.821371E-15 -8.742278E-08 -1
23.75853 -14.7815 444.493 3.821371E-15 -8.742278E-08 -1
18.88455 -11.32599 450.5348 3.821371E-15 -8.742278E-08 -1
11.25088 -12.7374 457.7895 -3.821371E-15 8.742278E-08 1
9.309592 -15.99841 448.5661 0.7071066 -2.991414E-09 0.7071071
-0.6212044 -45.46071 467.6648 4.371139E-08 -1 8.742276E-08
4.995225 -28.66867 460.8793 0.9928668 -0.001175112 0.1192233
3.275673 -29.24527 459.8997 0.9871348 -0.003822329 -0.159845
1.716188 -29.93757 459.5667 0.9241344 0.001867171 -0.382063
7.250676 -26.1044 464.1579 0.7415128 -0.006521334 0.6709071
-2.290795 -31.25548 460.3637 0.5739763 0.001626048 -0.8188703
-5.650115 -29.541 462.2621 0.07600456 -0.001966872 -0.9971055
-6.6623 -29.09819 463.9199 -0.1901214 -0.002076783 -0.9817584
-7.226368 -28.54874 466.6977 -0.548942 0.0003681739 -0.8358604
-2.613132 -26.57091 473.4276 -0.9809387 0.00314569 0.1942923
-0.9934187 -25.37113 473.5441 -0.902176 -0.0002373774 0.4313682
2.202088 -25.34086 473.3513 -0.6462959 -0.007250737 0.7630525
6.823957 -26.58473 469.9395 0.1032677 0.002424709 0.9946507
7.659364 -27.40044 467.5674 0.4452017 -0.01164385 0.8953546
7.385982 -26.10527 467.8993 0.3438866 0.005387755 0.9389957
7.493906 -25.84187 466.3843 0.5075564 0.001312282 0.8616176
4.128582 -41.67077 476.883 -4.371139E-08 1 -8.742277E-08
24.57761 -27.43154 439.5831 4.371139E-08 -1 8.742276E-08
24.09811 -27.64558 439.1386 4.371139E-08 -1 8.742277E-08
24.98437 -27.99398 437.8005 4.371139E-08 -1 8.742276E-08
21.52132 -27.0381 441.8524 4.371139E-08 -1 8.742277E-08
21.31952 -27.50243 440.579 4.371139E-08 -1 8.742276E-08
21.97874 -28.55585 437.2781 4.371139E-08 -1 8.742276E-08
20.77382 -28.95444 436.5656 4.371139E-08 -1 8.742276E-08
22.15903 -28.93402 436.1139 4.371139E-08 -1 8.742277E-08
14.62371 -25.82637 447.9138 4.371139E-08 -1 8.742277E-08
18.80051 -29.60512 435.4047 4.371139E-08 -1 8.742277E-08
17.62124 -29.99956 434.6947 4.371139E-08 -1 8.742277E-08
18.89755 -30.02189 434.1591 4.371139E-08 -1 8.742277E-08
15.46383 -29.34265 437.3972 4.371139E-08 -1 8.742277E-08
14.48338 -30.82714 433.4499 4.371139E-08 -1 8.742277E-08
15.19743 -31.27382 431.89 4.371139E-08 -1 8.742277E-08
6.481153 -25.43089 452.0651 4.371139E-08 -1 8.742277E-08
3.980088 -24.47373 455.7659 4.371139E-08 -1 8.742277E-08
6.325354 -26.66545 448.539 4.371139E-08 -1 8.742277E-08
-0.6406126 -24.43465 457.5836 4.371139E-08 -1 8.742277E-08
-1.401498 -24.5 457.6746 4.371139E-08 -1 8.742277E-08
-1.941225 -25.63931 454.5666 4.371139E-08 -1 8.742276E-08
10.14724 -30.56882 435.7448 0.005413257 -0.9988068 0.04853581
10.6351 -30.56571 435.6122 0.001193356 -0.9997312 0.02315342
-7.573602 -24.04913 461.2361 -0.003783248 -0.9991403 0.04128379
0.1123132 -26.74381 450.5912 -0.0007724789 -0.9995412 0.03027862
0.3374474 -27.00805 449.6773 -4.368542E-05 -0.9968202 0.07968388
12.50257 -22.69705 457.7785 0.00200069 -0.99995 -0.009798806
16.6017 -23.98315 452.5112 -0.001495379 -0.9998076 -0.01955915
-9.511926 -23.7482 462.1998 -0.01897394 -0.9333706 0.3584124
3.589838 -28.34343 444.4974 -0.004955108 -0.9867917 0.1619183
10.04352 -30.74619 435.1345 0.001880126 -0.9818144 0.1898343
14.51433 -30.93026 433.1082 -4.371139E-08 1 -8.742277E-08
15.37035 -31.19742 432.017 -4.371139E-08 1 -8.742276E-08
15.31329 -29.00121 438.413 -4.371139E-08 1 -8.742277E-08
17.62287 -30.01118 434.6295 -4.371139E-08 1 -8.742276E-08
18.8247 -29.61013 435.3503 -4.371139E-08 1 -8.742277E-08
13.91325 -27.72485 442.6342 -4.371139E-08 1 -8.742276E-08
14.431 -25.88792 447.7753 -4.371139E-08 1 -8.742277E-08
16.81144 -26.8048 444.2359 -4.371139E-08 1 -8.742276E-08
18.22264 -26.81563 443.6839 -4.371139E-08 1 -8.742277E-08
20.78487 -28.9473 436.5513 -4.371139E-08 1 -8.742277E-08
21.96768 -28.5482 437.2735 -4.371139E-08 1 -8.742276E-08
21.69485 -29.05935 435.8904 -4.371139E-08 1 -8.742277E-08
21.17179 -27.50909 440.5833 -4.371139E-08 1 -8.742276E-08
24.7165 -27.45597 439.43 -4.371139E-08 1 -8.742276E-08
24.9574 -27.98092 437.8174 -4.371139E-08 1 -8.742276E-08
14.18419 -22.52823 457.5017 -0.007083903 -0.9937554 -0.1113555
14.92337 -22.79605 456.4502 -0.000782991 -0.9946787 -0.1030226
7.455563 -26.98519 447.1631 -4.371139E-08 1 -8.742277E-08
3.602799 -24.21378 456.6287 -4.371139E-08 1 -8.742277E-08
0.6760798 -24.40174 457.1626 -4.371139E-08 1 -8.742277E-08
3.189463 -26.58019 449.9122 -4.371139E-08 1 -8.742277E-08
1.821147 -26.08455 451.8556 -4.371139E-08 1 -8.742277E-08
-2.228093 -24.01831 459.3468 -4.371139E-08 1 -8.742277E-08
-4.398593 -24.46412 458.8533 -4.371139E-08 1 -8.742277E-08
3.699636 -28.07133 445.3857 -0.002143195 0.9997537 -0.02208969
4.820239 -29.01431 441.5313 -0.001135735 -0.9227438 0.3854123
1.252104 -27.63002 447.1689 0.001649943 -0.9622519 0.2721556
9.26114 -30.61293 435.4005 0.003120613 -0.9386594 0.3448319
24.46556 -28.0639 436.2508 0.9146776 0.4041624 -0.004212842
9.925525 -30.4912 436.0414 0.002353321 0.9985774 -0.05326906
23.57343 -26.25986 443.3168 -0.0003697471 0.9995834 0.02886096
18.50679 -24.38194 450.6394 0.005680442 0.9996166 0.02710247
22.23218 -26.08582 444.3234 0.0004031688 0.9999977 0.00213066
15.43914 -25.39247 448.8416 -4.371139E-08 1 -8.742277E-08
6.716244 -20.23185 467.036 0.002674701 0.9998888 0.01467262
12.21998 -22.17714 459.3553 0.00523151 0.9997929 0.01966863
13.03354 -22.64065 457.7165 0.001991471 0.9999434 0.01045346
10.49508 -24.4863 453.3264 4.371139E-08 -1 8.742277E-08
5.329055 -18.80997 471.1727 0.0009863034 -0.9476728 -0.3192417
27.16671 -26.71023 440.0912 0.0003335289 -0.9369208 -0.3495417
4.197891 -28.83588 441.5904 0.002866974 -0.8442061 0.5360111
8.656926 -30.46045 435.5269 0.005757996 -0.8787192 0.4773045
22.52775 -28.66787 435.0372 0.9364812 0.3504652 -0.01330888
9.908112 -30.82532 434.5555 5.176858E-05 0.9490799 -0.3150357
11.48709 -21.83617 460.6125 -9.91627E-05 0.9995731 0.02921593
5.997675 -19.67708 468.8659 -0.002054048 0.9974774 0.07095592
5.672275 -19.40922 469.7086 0.0006236908 0.9912566 0.131947
10.63268 -21.41717 462.1108 -0.00405054 0.9983917 0.05654689
7.769826 -20.11419 466.8499 0.001608377 0.9890304 0.147704
3.874205 -18.05869 473.6022 -5.391231E-05 -0.9291157 -0.3697892
25.99703 -25.89414 442.33 0.003540856 -0.8792369 -0.4763716
13.34777 -21.12581 460.5686 0.00497685 -0.8521857 -0.5232158
2.138651 -28.07975 444.3469 -0.0006519562 -0.8142287 0.5805439
3.66284 -28.61259 441.6371 -0.002179465 -0.7680966 0.6403303
1.876264 -27.8649 443.5447 -0.006610476 -0.6675023 0.7445784
-9.367414 -23.84043 461.6331 0.001297084 0.9220931 -0.386966
8.744574 -19.69184 466.8415 0.008944347 0.8850676 0.4653766
11.7606 -20.50652 462.881 0.001399878 0.8445206 0.5355212
5.653807 -18.58382 471.2319 -0.002624504 0.9000449 0.4357893
5.823465 -18.26087 471.4835 0.002649206 -0.8248447 -0.5653532
7.499096 -29.78456 434.9393 0.001024362 -0.5605775 0.8281013
-9.128666 -23.53728 458.2411 0.0008117933 -0.4495063 0.8932768
-9.114115 -23.94547 461.0656 0.001798519 0.8992829 -0.4373637
5.480301 -29.29569 439.6237 -0.003000743 0.84745 -0.5308667
7.922627 -30.17845 436.689 -0.0005686521 0.8914822 -0.4530555
11.19521 -31.3727 432.0461 -0.0007432836 0.8924527 -0.4511405
5.720954 -18.03812 471.8201 -0.001982212 -0.7870775 -0.6168509
8.984593 -29.90283 431.8829 -0.002807958 -0.3123024 0.9499786
2.53198 -27.66235 441.3161 0.000433709 -0.3776774 0.9259372
8.827804 -29.55894 431.7759 -0.00415122 -0.2002433 0.9797374
8.855766 -29.41528 431.5788 0.001129663 -0.1282398 0.9917426
-12.78508 -21.80816 462.8108 -0.006017937 -0.2407632 0.9705653
1.075686 -26.65973 442.7888 0.005376726 -0.158727 0.9873079
3.826855 -28.64274 441.2055 -0.000203315 0.7529626 -0.6580633
7.64227 -30.01522 435.5441 0.0008577525 0.6883744 -0.725355
12.79001 -20.03538 462.1964 0.003416384 0.6590612 0.7520816
7.366633 -18.2584 469.8215 -0.002368544 -0.7027087 -0.7114738
24.97886 -23.76947 445.1678 0.003688306 -0.4785705 -0.8780414
25.48598 -23.64182 444.518 0.002940972 -0.3766151 -0.9263652
19.08389 -21.44522 453.6303 0.003705908 -0.4087253 -0.9126499
-7.683358 -15.62344 466.6651 1 4.371139E-08 0
-10.07835 -16.23998 465.1345 -1 -4.371139E-08 0
16.26411 -16.25992 455.9376 -3.821371E-15 8.742278E-08 1
23.50779 -18.49147 445.3561 -0.003958667 0.009492747 0.9999471
27.26634 -20.07051 440.098 -0.01217856 0.009073334 0.9998847
27.66304 -21.79954 440.405 -3.821371E-15 8.742278E-08 1
26.99019 -20.03264 440.5473 -0.001030886 0.001726603 -0.999998
26.76736 -20.49759 441.1672 3.821371E-15 -8.742278E-08 -1
27.57169 -20.53707 439.8773 3.821371E-15 -8.742278E-08 -1
26.95087 -21.08071 441.1896 3.821371E-15 -8.742278E-08 -1
24.23198 -20.28087 445.1823 3.821371E-15 -8.742278E-08 -1
7.532257 -28.49727 433.1992 -0.0006368207 -0.01829436 0.9998325
6.007691 -27.89217 435.3416 0.004087737 -0.01564375 0.9998693
8.967888 -29.36477 431.3424 0.003030175 -0.0898413 0.9959515
1.22358 -26.56718 442.4507 -0.005121529 -0.1129102 0.993592
5.389622 -26.35192 435.4705 -0.004943709 -0.004918071 0.9999757
4.811954 -25.77438 436.0822 -0.00183794 -0.00172572 0.9999968
-1.082278 -24.62606 445.0807 0.0007798332 -0.005646513 0.9999838
-1.255469 -22.18258 443.995 -3.821371E-15 8.742278E-08 1
-5.872978 -22.85989 451.8988 -8.063013E-05 -0.001037496 0.9999995
-13.06033 -20.37043 462.2462 -3.821371E-15 8.742278E-08 1
-13.45286 -18.02002 461.5895 -3.821371E-15 8.742278E-08 1
-4.404959 -14.91187 445.1197 -3.821371E-15 8.742278E-08 1
-0.8278981 -18.62854 441.3369 -3.821371E-15 8.742278E-08 1
-0.1729674 -18.00469 439.9247 -3.821371E-15 8.742278E-08 1
