ply
format ascii 1.0
element vertex 811
property float x
property float y
property float z
property float nx
property float ny
property float nz
end_header
94.61961 20.44151 445.8024 -0.4207222 -0.2876427 -0.8603806
94.97902 20.2596 445.8695 -0.3405458 -0.2774898 -0.8983474
95.44119 20.07812 446.0038 -0.2115262 -0.2211031 -0.9520348
96.09274 19.82268 445.8281 -0.08696583 -0.1366533 -0.9867942
96.82944 18.91665 445.58 0.07279836 -0.1108804 -0.9911639
97.33112 18.78135 445.6819 0.2140096 -0.08757766 -0.9728977
97.86073 18.57046 445.7859 0.3225955 -0.2415344 -0.9152014
98.34036 18.44813 445.9085 0.3273111 -0.56714 -0.7557909
98.67939 18.55802 446.2299 0.247759 -0.4713618 -0.846424
99.30524 18.50139 446.3949 0.1737525 -0.4118785 -0.8945203
99.72241 18.34915 446.4722 0.08336836 -0.4970154 -0.8637277
100.0898 18.36886 446.7266 0.315688 -0.3423419 -0.8849539
100.5287 18.45114 447.1116 0.5225857 -0.2254069 -0.8222506
101.0176 18.58399 447.5156 0.6291637 -0.1908569 -0.7534764
101.3656 18.68058 447.7882 0.7073491 -0.1862466 -0.6818869
101.729 18.75097 448.0518 0.7904064 -0.1691608 -0.5887635
102.1273 19.00975 448.4887 0.8583363 -0.1721565 -0.4833435
102.4861 19.30996 448.9935 0.9044813 -0.1064062 -0.4130271
102.8144 19.51595 449.4255 0.9140579 -0.1076391 -0.3910398
103.0923 20.20708 450.2263 0.9277639 0.02802379 -0.3721137
103.2035 21.45453 451.4248 0.9631952 0.1026531 -0.2484296
103.3123 22.54915 452.5297 0.9719115 -0.2272646 -0.06114485
91.53722 24.82062 447.5191 0.8982314 -0.03047679 0.4384648
92.64822 22.97011 446.3808 -0.5721655 -0.2989388 -0.7637161
93.29645 22.37676 446.1794 -0.5411265 -0.2169063 -0.8124862
93.93172 21.77393 445.9411 -0.4873729 -0.1893067 -0.8524264
94.7408 20.90373 445.6086 -0.3910514 -0.1815697 -0.9022812
95.30684 20.55762 445.5081 -0.3039763 -0.290792 -0.9072147
95.87295 20.32304 445.5953 -0.2180793 -0.2451901 -0.9446287
96.27719 20.26582 445.7403 -0.1285688 -0.1990212 -0.971525
96.71221 20.15608 445.8988 0.09250185 -0.2817426 -0.9550208
97.19942 20.07723 446.0474 0.239568 -0.1063895 -0.9650329
97.75823 19.85345 446.0384 0.3603055 -0.06225283 -0.9307548
98.3118 19.3989 446.0586 0.3764617 -0.0596769 -0.9245082
98.80821 19.27833 446.1628 0.2979431 -0.03876718 -0.9537961
99.34059 19.00413 446.2316 0.2693786 -0.04239893 -0.9621006
99.84943 18.72871 446.3562 0.2849973 -0.09173401 -0.9541286
100.3063 18.75195 446.5277 0.4960904 -0.20389 -0.8439924
100.7052 18.80656 446.8043 0.606696 -0.2459512 -0.7559286
101.06 18.96802 447.2614 0.6673929 -0.2851301 -0.687959
101.5053 19.02991 447.563 0.7066591 -0.3700627 -0.6030644
101.8804 19.16758 447.8897 0.7778561 -0.2413101 -0.5802667
102.2474 19.36167 448.2175 0.8401595 -0.09558832 -0.5338493
102.641 19.95386 448.8936 0.881238 -0.040132 -0.4709659
102.818 20.73838 449.7606 0.9368952 0.03045454 -0.3482813
103.148 21.91516 450.9653 0.9790055 -0.02922812 -0.201727
103.3645 22.25551 451.3728 0.976423 -0.1760303 -0.1249455
92.8488 23.36441 446.1147 -0.5745215 -0.2516591 -0.7788408
93.38117 22.912 445.9249 -0.4970935 -0.2556993 -0.8291659
93.87517 22.57843 445.8112 -0.460105 -0.2139003 -0.8617134
94.69979 21.73174 445.5627 -0.3652474 -0.1805251 -0.9132388
95.40282 21.01493 445.2912 -0.2502088 -0.1919145 -0.9489807
95.92996 20.73327 445.2924 -0.1469941 -0.2453972 -0.9582135
96.41923 20.6092 445.4062 -0.100937 -0.3525011 -0.930352
96.90552 20.48808 445.5571 0.01333346 -0.3595853 -0.933017
97.39259 20.44132 445.7499 0.1095924 -0.2854188 -0.9521164
97.87079 20.40804 446.0114 0.2826302 -0.3991874 -0.8722212
98.27744 20.50927 446.313 0.2462644 -0.399829 -0.8828877
98.67216 20.55535 446.5957 0.1860376 -0.3414644 -0.9212993
99.13573 20.40215 446.6548 0.2238296 -0.1298234 -0.9659433
99.73508 20.03501 446.7032 0.3473883 -0.03357519 -0.9371201
100.2399 19.90253 446.789 0.5404829 -0.04147237 -0.8403322
100.7058 19.77693 446.9846 0.6337877 -0.06469703 -0.7707967
101.1412 19.79069 447.2368 0.6453464 -0.06142873 -0.7614161
101.534 19.96633 447.606 0.7105882 -0.04099638 -0.7024128
101.9175 20.30427 448.0649 0.781292 -0.06402659 -0.620873
102.1471 20.93579 448.8183 0.8868345 0.000607443 -0.4620869
102.7076 21.52994 449.4666 0.9414303 -0.06371856 -0.3311327
102.7899 21.74769 449.9326 0.9555512 -0.1092754 -0.2738261
103.1526 21.99845 450.3038 0.9704797 -0.06506275 -0.2322412
103.352 22.61609 451.0952 0.9811803 -0.150586 -0.1208677
92.08602 24.9805 446.406 -0.6994987 -0.1713671 -0.6937831
92.79482 24.22239 446.0797 -0.4986204 -0.1895376 -0.8458447
93.65615 23.21324 445.5897 -0.5012816 -0.2161472 -0.8378528
94.1613 22.89162 445.5569 -0.458884 -0.3138928 -0.831202
94.63643 22.54604 445.4634 -0.3544709 -0.2341803 -0.905268
95.34359 22.01259 445.3509 -0.2506906 -0.162878 -0.9542668
95.99763 21.42315 445.2213 -0.06979966 -0.1668531 -0.9835081
96.59438 21.0274 445.2103 0.05393048 -0.1418854 -0.988413
97.11015 20.82093 445.2744 0.1270472 -0.3908724 -0.9116347
97.55173 20.79485 445.4204 0.1892888 -0.2394371 -0.9522813
98.03274 20.75955 445.5825 0.2573286 -0.36336 -0.8954059
98.44707 20.80158 445.8286 0.2515998 -0.2104023 -0.9446844
98.85912 20.71028 446.2135 0.1056855 -0.1536008 -0.982465
99.34592 20.65076 446.2816 0.1836637 -0.2159039 -0.9589855
99.84968 20.48702 446.4175 0.3042346 -0.156371 -0.9396752
100.3853 20.64878 446.8228 0.4650159 -0.4745316 -0.7473821
100.6587 20.88662 447.2192 0.619333 -0.3660066 -0.6945977
101.0854 20.96326 447.4898 0.6739452 -0.309605 -0.6707777
101.6287 20.88853 447.6638 0.7467015 -0.1332593 -0.651674
102.032 21.0978 448.0898 0.8721498 -0.1069895 -0.4773971
102.2948 21.34376 448.5143 0.9043363 -0.1529268 -0.3984836
102.5768 21.70242 449.0197 0.9205742 -0.1307117 -0.3680456
102.8489 22.04962 449.5609 0.9457185 -0.098793 -0.3096072
103.1606 22.9312 450.4811 0.9727999 0.02037654 -0.2307491
92.23076 25.35947 446.0592 -0.5477604 -0.2190713 -0.8074443
92.96645 24.55653 445.8082 -0.5162441 -0.1717014 -0.8390535
93.70566 23.69631 445.2908 -0.4959249 -0.2127688 -0.8418955
94.41372 23.1656 445.1921 -0.4335656 -0.2987697 -0.8501515
94.91624 22.83975 445.1478 -0.3645603 -0.2693948 -0.8913598
95.46697 22.59545 445.2089 -0.2813326 -0.2499151 -0.9264958
95.94791 22.46126 445.3342 -0.1378721 -0.2180637 -0.9661468
96.5994 21.84977 445.1554 0.05431133 -0.1595071 -0.9857017
97.18557 21.42155 445.1068 0.178724 -0.1346982 -0.9746354
97.71925 21.16996 445.131 0.3566591 -0.0760711 -0.9311324
98.21763 21.01017 445.22 0.5089732 -0.07483978 -0.8575228
98.66269 20.98281 445.3879 0.3800709 -0.1095876 -0.9184426
99.12714 21.00111 445.7178 0.1368236 -0.1048609 -0.9850296
99.68939 20.92835 445.9801 0.09556694 -0.4636794 -0.8808339
100.1997 20.74206 446.0714 0.2568853 -0.5588279 -0.7884932
100.291 20.86035 446.2793 0.4650159 -0.4745316 -0.7473821
100.891 21.12799 446.7752 0.6169796 -0.08719955 -0.7821332
101.3262 21.1847 447.021 0.6495412 -0.2196567 -0.727906
101.5965 21.24635 447.3 0.7698771 -0.3093628 -0.5581971
102.006 21.46259 447.7678 0.8709494 -0.1025007 -0.4805631
102.4035 21.76419 448.2308 0.901453 -0.07920957 -0.4255683
102.6836 22.36343 448.9613 0.9237905 -0.01965069 -0.3823942
102.9059 22.82141 449.5957 0.9328188 0.005006609 -0.3603109
102.8951 24.73383 451.2572 0.9780372 0.0427644 0.2039962
92.53622 25.64437 445.7535 -0.6130298 -0.293273 -0.7336112
93.07619 25.1808 445.5706 -0.5197388 -0.3301691 -0.7879468
93.59405 25.01349 445.7006 -0.4755536 -0.2316276 -0.8486446
94.49436 23.67472 444.9446 -0.3948031 -0.1832866 -0.9002981
95.18823 23.14875 444.8585 -0.3185553 -0.3130836 -0.8947074
95.68464 22.93989 444.8674 -0.2286992 -0.3953839 -0.8895889
96.11819 22.80784 445.0003 -0.1590401 -0.317222 -0.9349207
96.57832 22.63525 445.0478 0.01045435 -0.2599564 -0.9655638
97.1517 22.52889 445.2519 0.1829243 -0.1289267 -0.9746367
97.61791 22.5794 445.5316 0.4644887 -0.1062627 -0.8791806
97.98627 22.51263 445.7994 0.4527725 -0.0471541 -0.8903784
98.46651 22.66221 445.9582 0.3403933 0.01232585 -0.9402024
98.96313 22.40055 446.1779 0.2640225 0.004872177 -0.9645043
99.69662 21.49153 445.7459 0.2842665 -0.01552639 -0.9586196
100.1454 21.35964 445.9388 0.446818 -0.0720129 -0.8917219
100.6005 21.54255 446.2144 0.6158341 -0.01025933 -0.7878092
101.0364 21.52645 446.4435 0.656574 -0.01737591 -0.7540615
101.3596 21.48584 446.836 0.6601209 -0.0529468 -0.7492911
101.8687 21.91524 447.2145 0.7412077 -0.01828167 -0.6710268
102.17 22.10212 447.6536 0.8230894 -0.01985966 -0.5675644
102.4011 22.89019 448.4883 0.8812545 -0.009324842 -0.47255
102.693 23.68989 449.2498 0.9188895 -0.002972507 -0.3945038
102.7735 24.56152 450.3389 0.9767357 -0.0002836679 -0.2144465
103.2349 24.64801 450.4347 0.9936849 0.0007305951 -0.112204
91.76649 27.25726 446.0337 -0.6769969 -0.1848408 -0.7123968
92.53209 26.33282 445.5862 -0.6512604 -0.2417324 -0.7193229
93.33786 25.31786 445.0422 -0.5219824 -0.3196293 -0.7908044
93.73416 25.16845 445.216 -0.4682782 -0.3239683 -0.8220464
94.46678 24.73356 445.1773 -0.3876008 -0.2129738 -0.8968878
95.20848 23.79368 444.6791 -0.2322852 -0.1714413 -0.9574193
95.79964 23.3746 444.6317 -0.1722866 -0.1777476 -0.9688773
96.33347 23.13851 444.6639 -0.05546537 -0.2418565 -0.9687256
96.82727 23.00174 444.8087 0.04978396 -0.3584077 -0.932237
97.27119 22.94109 444.989 0.1339259 -0.233271 -0.9631452
97.75072 22.95084 445.2379 0.45913 -0.3050469 -0.8343537
98.26685 23.06635 445.6092 0.1821629 -0.697298 -0.6932477
98.61949 23.07451 445.721 0.07851942 -0.7866344 -0.612406
99.05706 22.88261 445.8874 0.04565166 -0.2528632 -0.9664245
99.54119 22.86216 446.1119 0.2502143 -0.1240044 -0.9602165
100.0463 22.81287 446.3163 0.5814762 -0.1197018 -0.8047092
100.4155 22.75916 446.6296 0.633479 -0.03256787 -0.7730741
100.9275 23.01846 446.946 0.6491758 -0.05348518 -0.7587557
101.2613 23.08985 447.305 0.7058626 -0.0387796 -0.7072866
101.6572 23.26369 447.6744 0.8005471 -0.03605794 -0.5981843
102.1349 23.56474 448.1005 0.8848889 -0.04808359 -0.4633138
102.4511 23.99181 448.7372 0.9344596 -0.09069493 -0.3443249
102.8307 24.27814 449.2051 0.9408165 -0.0936133 -0.3257314
103.035 24.48415 449.5361 0.9757451 -0.07683023 -0.2049838
103.4857 24.62078 450.053 0.9901828 0.05073207 -0.1302477
90.83617 29.55749 446.9013 -0.6915728 -1.526198 -0.4386866
91.93473 27.65987 445.7164 -0.6808208 -0.2045374 -0.7033119
92.86111 26.25811 444.907 -0.6315091 -0.242341 -0.7365237
93.55217 25.60887 444.6711 -0.4862626 -0.4332153 -0.7588632
93.97469 25.45359 444.7574 -0.4672232 -0.3746921 -0.8008173
94.63493 25.12912 444.8135 -0.4014461 -0.3807256 -0.8330001
94.99476 24.93223 444.8704 -0.3593575 -0.2692356 -0.893518
95.84135 24.04486 444.4222 -0.1038985 -0.1642645 -0.9809293
96.44514 23.63973 444.5345 0.1173241 -0.1360761 -0.9837268
96.95953 23.37398 444.5892 0.10404 -0.2648994 -0.958647
97.43533 23.3735 444.6908 0.2251985 -0.2434154 -0.9434165
97.84526 23.32798 444.9437 0.3915053 -0.560377 -0.729864
98.22963 23.406 445.1086 0.3239201 -0.5331806 -0.7815332
98.75902 23.41919 445.4725 0.1438603 -0.2004344 -0.9690873
99.35735 22.85431 445.1652 0.0832877 -0.272025 -0.9586792
99.80511 23.07408 445.7792 0.2252799 -0.1823384 -0.9570798
100.2529 23.19031 446.0797 0.5534473 -0.2982537 -0.7776508
100.664 23.29546 446.3741 0.6585007 -0.2201409 -0.719663
101.0392 23.41779 446.6873 0.6612725 -0.2214035 -0.7167281
101.5288 23.5472 447.0676 0.7047211 -0.2204137 -0.6743783
101.796 23.69125 447.3669 0.8225874 -0.1588869 -0.5459899
102.1964 23.97878 447.8423 0.8884834 -0.1800059 -0.4221317
102.5084 24.32094 448.3538 0.9198314 -0.1202304 -0.3734367
102.8433 24.56949 448.7686 0.9358633 -0.05030276 -0.3487541
102.9978 25.753 449.9429 0.9642216 0.0833708 -0.2516463
91.38562 28.82315 445.7318 -0.7865175 -0.195985 -0.585645
92.08754 28.01232 445.3657 -0.6061906 -0.3094215 -0.7326605
92.55563 27.67101 445.33 -0.6232442 -0.2304475 -0.7473023
93.73077 26.103 444.5115 -0.4875096 -0.2701205 -0.8302827
94.2287 25.7718 444.4335 -0.3883171 -0.373792 -0.842312
94.77498 25.49229 444.461 -0.3599119 -0.3334311 -0.8713709
95.51898 24.99394 444.4099 -0.3303308 -0.3305065 -0.8841081
95.81329 25.08189 444.6494 -0.1465949 -0.3096921 -0.9394684
96.37096 24.95892 444.5324 0.05329188 -0.1456472 -0.9879003
96.95515 24.3657 444.5702 0.2319605 -0.09857798 -0.9677173
97.49732 24.08563 444.6215 0.3928898 -0.06033051 -0.9176044
98.034 23.68535 444.762 0.529588 -0.07873368 -0.8445932
98.50646 23.81144 444.8976 0.3396354 0.003584929 -0.9405504
98.84415 23.89284 445.2479 0.2664343 -0.02568585 -0.9635108
99.67287 23.04664 444.8678 0.2289874 -0.3598709 -0.9044656
100.0336 23.22746 445.255 0.3804838 -0.3577868 -0.8527724
100.4123 23.4099 445.5079 0.6124274 -0.3595803 -0.7040132
100.697 23.71476 446.1016 0.6470107 -0.3131366 -0.6952142
101.0414 23.80054 446.424 0.6608496 -0.4319506 -0.6137561
101.5001 23.92344 446.7732 0.7101435 -0.4312038 -0.5565605
101.8055 23.99839 447.1069 0.7907317 -0.4236287 -0.4419075
102.2594 24.38889 447.578 0.876827 -0.09261081 -0.4718024
102.691 24.84443 448.1411 0.9148743 0.008569997 -0.4036477
102.6931 26.34805 449.4743 0.9244451 0.0826917 -0.3722411
102.8734 27.09181 450.36 0.9652829 -0.08992162 -0.2452409
92.36106 28.32763 445.0025 -0.6235799 -0.3216406 -0.7125275
93.04247 27.75 444.814 -0.5667775 -0.1891857 -0.8018554
93.65593 27.1073 444.6036 -0.4633552 -0.1853739 -0.8665671
94.35031 26.3301 444.253 -0.3146333 -0.2202289 -0.9233122
95.03038 25.76975 444.1051 -0.2731517 -0.2390148 -0.9318048
95.5521 25.49001 444.1288 -0.2420631 -0.3192482 -0.9162349
96.07963 25.29906 444.2423 -0.143541 -0.4080415 -0.9016087
96.52361 25.19128 444.3506 -0.007797926 -0.2783269 -0.9604549
96.95893 25.26727 444.7355 0.256298 -0.3647716 -0.8951274
97.39108 25.34716 444.9263 0.3700672 -0.1727642 -0.9127994
97.85107 25.29725 445.1777 0.4036968 -0.1031621 -0.9090581
98.32548 25.28252 445.3987 0.3709314 -0.11552 -0.9214473
98.78821 25.15926 445.4758 0.2274695 -0.170119 -0.9588104
99.37843 24.75754 445.4872 0.3134977 -0.02609063 -0.9492305
99.96751 24.30709 445.4142 0.4878245 -0.02966586 -0.8724376
100.4102 24.3353 445.677 0.6494833 -0.02565212 -0.7599429
100.8258 24.36403 445.9757 0.6736474 -0.07520453 -0.7352166
101.2469 24.54408 446.3201 0.6637223 -0.06165782 -0.7454336
101.6397 24.72442 446.7023 0.7274356 -0.04865987 -0.6844484
102.0361 24.90408 447.0803 0.8216752 -0.014914 -0.5697608
102.1388 26.01868 448.1819 0.9205315 0.04982928 -0.3874776
102.4445 26.62117 448.9031 0.9518345 -0.04717911 -0.3029606
102.8405 26.76695 449.2552 0.9297817 -0.2396071 -0.2794537
103.284 26.70556 449.4391 0.9668921 -0.1208835 -0.2247373
90.34348 32.36055 446.8968 -0.6915728 -1.526198 -0.4386866
91.50468 30.2772 445.5844 -0.6409702 -0.2166501 -0.736356
92.49063 28.69827 444.6505 -0.6269348 -0.2531276 -0.7368034
93.23801 27.96627 444.386 -0.5646613 -0.2373599 -0.7904543
93.6164 27.71199 444.3305 -0.5094731 -0.2582437 -0.8208213
94.31641 27.18533 444.1978 -0.3062611 -0.1810984 -0.9345628
95.20914 26.17802 443.8365 -0.1859204 -0.1531438 -0.9705569
95.65335 26.00415 443.8726 -0.09141752 -0.1580117 -0.9831964
96.20184 25.7447 443.9535 0.005189771 -0.1636871 -0.9864988
96.7269 25.54145 444.0162 0.1557742 -0.2635749 -0.9519783
97.13485 25.55693 444.2119 0.2017058 -0.2424966 -0.9489523
97.61799 25.5254 444.5462 0.3429483 -0.3050846 -0.8884311
98.03945 25.61219 444.784 0.2496988 -0.206684 -0.9460086
98.51712 25.6227 445.0706 0.1877385 -0.313253 -0.9309281
98.90243 25.57652 445.2604 0.0376814 -0.471847 -0.8808751
99.4386 25.44688 445.3868 0.3006074 -0.3250881 -0.8966343
99.95753 25.41734 445.6352 0.5109962 -0.3831351 -0.7694742
100.2957 25.56788 445.9766 0.6049148 -0.206865 -0.7689505
100.7224 25.69495 446.3458 0.7268115 -0.2122841 -0.6532078
101.1165 25.87868 446.7278 0.7764452 -0.1426823 -0.6138195
101.4845 26.10901 447.107 0.8437106 -0.07571625 -0.5314316
101.9796 26.30189 447.5539 0.9005218 -0.05717401 -0.4310354
102.2258 26.4596 447.8911 0.9407058 -0.05923394 -0.3340117
102.5892 26.91595 448.4939 0.9324347 -0.2043049 -0.2980352
103.0222 27.1704 448.9266 0.9645461 -0.06529873 -0.2557087
91.06242 31.12614 445.3537 -0.6240585 -0.4953065 -0.6043364
91.783 30.35846 445.0218 -0.6341822 -0.2847959 -0.7188215
92.497 29.58331 444.6974 -0.5833347 -0.1985146 -0.7875993
93.46764 28.37788 444.1416 -0.4912666 -0.2178836 -0.8433172
94.00069 27.9288 443.9904 -0.4385495 -0.2675679 -0.8579521
94.52626 27.61458 443.9777 -0.3464345 -0.2129982 -0.9135727
95.07204 27.36939 444.0541 -0.2343552 -0.185822 -0.9542263
95.53307 27.24266 444.2041 -0.06906126 -0.1369762 -0.9881641
96.26056 26.43779 443.8046 0.1068742 -0.1239565 -0.9865155
96.86295 26.00918 443.8018 0.1719061 -0.1291696 -0.9766083
97.29907 25.84305 443.9186 0.3523723 -0.248221 -0.9023415
97.73523 25.92657 444.2313 0.3837814 -0.2644154 -0.8847579
98.20711 25.92511 444.4043 0.1415342 -0.5917154 -0.7936254
98.66174 25.93102 444.6762 0.2372774 -0.2491035 -0.9389607
99.36954 25.20714 444.3739 -0.01846857 -0.6318942 -0.7748348
99.67318 25.66501 444.9929 0.2579037 -0.234799 -0.9372061
100.0583 25.76902 445.2473 0.4941522 -0.2565854 -0.8306489
100.547 25.82415 445.6226 0.5943626 -0.1967908 -0.7797478
100.9046 25.98231 445.9304 0.7206019 -0.186061 -0.6679178
101.3084 26.14376 446.304 0.7783781 -0.1048945 -0.6189705
101.6261 26.29524 446.6383 0.8518803 -0.09499898 -0.5150487
101.9617 26.55141 447.1145 0.8996344 -0.04247993 -0.4345727
102.3511 26.99566 447.7044 0.9175677 -0.05305243 -0.394024
102.6268 27.45532 448.3406 0.9251468 -0.01736469 -0.3792121
102.7328 28.90336 449.6494 0.9508108 0.1217122 -0.2848593
91.91931 30.78622 444.7581 -0.6329966 -0.4696618 -0.6154131
92.66209 29.93787 444.3361 -0.583223 -0.2813797 -0.7620212
93.3763 29.21368 444.0572 -0.4325771 -0.1791413 -0.8836207
94.16454 28.323 443.7013 -0.3605706 -0.2014756 -0.9107121
94.68979 28.01008 443.6596 -0.2982093 -0.1846766 -0.9364646
95.30968 27.69899 443.7297 -0.2304347 -0.2465574 -0.9413338
95.69631 27.59 443.8274 -0.08847744 -0.2554632 -0.9627619
96.17582 27.50081 444.0192 0.05656105 -0.1900022 -0.9801531
96.71958 27.33637 444.126 0.1770651 -0.1443408 -0.9735573
97.2619 27.05297 444.1648 0.397642 -0.08409548 -0.9136787
97.78339 26.76393 444.2789 0.4539149 -0.08825305 -0.8866637
98.2508 26.74392 444.3296 0.3693654 -0.03319148 -0.9286914
98.84415 26.35607 444.4038 0.2878591 -0.04375429 -0.9566728
99.37216 25.63035 444.4965 0.2758315 -0.07466103 -0.9583021
99.91663 25.94992 444.5963 0.3753401 -0.07586002 -0.9237776
100.2553 26.06348 444.9002 0.5854785 -0.1470172 -0.7972459
100.6101 26.18281 445.3241 0.6286199 -0.320378 -0.7086571
101.0894 26.2707 445.5163 0.7534413 -0.3000932 -0.5850388
101.3932 26.52931 446.0751 0.7891394 -0.2806689 -0.546337
101.7963 26.86149 446.5149 0.8265913 -0.06665004 -0.5588423
102.1458 27.34716 447.1044 0.8711782 -0.05545992 -0.4878247
102.3754 28.15871 447.9459 0.9373483 0.001068513 -0.3483918
102.4476 29.25954 449.0563 0.9392917 -0.2744147 -0.2059796
102.9388 29.09534 449.1936 0.9770147 0.08330248 -0.1962216
91.61676 31.27685 444.2343 -0.6648698 -0.2950097 -0.6862342
91.90752 31.13147 444.3946 -0.6383235 -0.3137669 -0.7029178
92.93182 30.26939 444.0031 -0.5415036 -0.3048946 -0.7834623
93.28734 30.01111 443.9173 -0.4900095 -0.2871851 -0.8230525
94.08748 29.3882 443.8984 -0.3601689 -0.1906662 -0.9131948
94.81078 28.56794 443.5049 -0.1736203 -0.1649264 -0.9709044
95.42195 28.15331 443.5021 -0.1471869 -0.159805 -0.976114
95.94145 27.9387 443.492 -0.07855742 -0.3897403 -0.9175682
96.45639 27.82845 443.6493 -0.02836811 -0.3289437 -0.9439235
96.88057 27.6887 443.7928 0.1434381 -0.3428837 -0.9283623
97.37759 27.6921 444.0539 0.3719272 -0.2524877 -0.8932638
97.74309 27.92155 444.4911 0.293403 -0.3860292 -0.8745834
98.15611 27.91959 444.7335 0.2786694 -0.3409863 -0.897815
98.70715 27.72755 444.8356 0.2376142 -0.1671375 -0.9568723
99.21066 27.56321 444.9228 0.2771378 -0.02748409 -0.9604371
99.70741 27.43654 444.9817 0.5155041 -0.0395962 -0.8559719
100.2322 26.96374 445.1324 0.6277238 -0.00530826 -0.7784181
100.6803 27.17491 445.3839 0.6546549 -0.0341928 -0.7551542
101.0394 27.34543 445.7999 0.7432129 -0.02326922 -0.6686503
101.385 27.85735 446.3814 0.7879689 -0.01810494 -0.6154488
101.7224 28.32005 446.9931 0.8574963 -0.05346355 -0.5117046
102.1437 28.62976 447.46 0.9305337 -0.04628895 -0.3632688
102.4593 29.00435 447.9822 0.9614976 -0.008865338 -0.27467
102.7408 29.24462 448.5181 0.9780165 0.0355729 -0.205471
91.0686 32.46304 444.2382 -0.526434 -0.2428597 -0.8147923
91.40599 32.83286 444.7629 -0.5254409 -0.1812305 -0.8313047
92.59258 31.13045 443.843 -0.5454398 -0.2253773 -0.8072798
93.06927 30.64011 443.6568 -0.5099463 -0.2481929 -0.8236232
93.80354 30.10447 443.5951 -0.3868824 -0.2913141 -0.8749048
94.10892 29.9854 443.6059 -0.3464349 -0.29047 -0.8919698
94.69783 29.69329 443.6464 -0.2119348 -0.1881712 -0.9589971
95.40669 28.9951 443.4003 -0.07823025 -0.1537545 -0.9850075
96.07124 28.40748 443.3478 -0.017057 -0.1628052 -0.9865109
96.59018 28.15706 443.3935 0.01031871 -0.5122015 -0.8588035
97.07542 28.05707 443.473 0.1433528 -0.5354931 -0.8322845
97.45293 28.08407 443.7017 0.3804338 -0.3870149 -0.8399342
97.90904 28.15901 443.9807 0.3310998 -0.2086245 -0.920244
98.32667 28.1577 444.2791 0.1840302 -0.1682677 -0.9684106
98.94868 28.00417 444.3949 0.2324446 -0.2704421 -0.934254
99.39516 27.87212 444.6685 0.2866309 -0.2652733 -0.920583
99.84729 28.02945 444.9558 0.4962408 -0.395346 -0.7729467
100.1703 28.3034 445.4021 0.6303443 -0.3581335 -0.6887717
100.5766 28.42721 445.663 0.6849639 -0.3152443 -0.6568452
101.0861 28.38899 445.9225 0.7564065 -0.2323483 -0.6114437
101.4991 28.5151 446.2796 0.8108124 -0.1917586 -0.5530025
101.874 28.72316 446.69 0.8876266 -0.09294029 -0.4510888
102.1154 28.89972 447.003 0.9186317 -0.09866196 -0.3825985
102.5088 29.31411 447.5949 0.9527266 -0.003671625 -0.3038068
91.86032 32.59166 444.0656 -0.5553337 -0.2187632 -0.8023387
92.35734 32.32965 444.0229 -0.5112273 -0.1739997 -0.8416477
93.2405 31.04977 443.3568 -0.4451624 -0.2136683 -0.8695841
93.74524 30.70349 443.2918 -0.3703381 -0.2283023 -0.9004043
94.47456 30.24151 443.2961 -0.3156722 -0.3281619 -0.8903152
94.93745 30.03322 443.3262 -0.2681089 -0.2562613 -0.9286808
95.41398 29.83505 443.3783 -0.1583185 -0.2225586 -0.9619787
95.85212 29.9504 443.7403 0.01496863 -0.1325381 -0.991065
96.61835 28.98071 443.2698 0.2144289 -0.05383042 -0.9752551
97.20565 28.55288 443.3148 0.3706481 -0.0355193 -0.928094
97.64562 28.45609 443.4586 0.5330339 -0.1577719 -0.8312538
98.17374 28.53259 443.702 0.3361857 -0.05582852 -0.9401395
98.58234 28.47957 444.0323 0.2061042 -0.1218706 -0.9709112
99.16875 28.28356 444.0285 0.1463643 -0.5197262 -0.8417022
99.49306 28.1979 443.9927 0.2067943 -0.4210718 -0.8831392
99.8918 28.3596 444.5284 0.4962408 -0.395346 -0.7729467
100.2771 28.49995 444.8697 0.6303443 -0.3581335 -0.6887717
100.7663 28.66196 445.2609 0.6729174 -0.1821087 -0.7169509
101.1992 28.80007 445.6284 0.7686407 -0.06125339 -0.6367414
101.4959 28.8718 445.9221 0.8133542 -0.354203 -0.4615139
101.9247 29.05045 446.3338 0.8755285 -0.1025488 -0.4721587
102.4012 29.47029 446.8689 0.9216921 -0.005934967 -0.3878767
102.3637 30.95425 448.2318 0.9510096 0.06660724 -0.301901
102.5184 31.93416 449.2239 0.9474625 -0.284294 -0.1466002
91.85143 33.30785 443.886 -0.579629 -0.2666968 -0.770002
92.57585 32.54718 443.5796 -0.5033673 -0.2155889 -0.8367454
93.05206 32.33895 443.6846 -0.3686281 -0.1928419 -0.9093543
93.96662 31.14421 443.1318 -0.2543417 -0.1725079 -0.9516047
94.57495 30.71785 443.0443 -0.2604879 -0.1811425 -0.948332
95.09125 30.39858 442.9904 -0.2053733 -0.2822434 -0.9371023
95.72539 30.19315 443.1209 -0.2041835 -0.3427459 -0.9169704
96.08672 30.09417 443.2712 -0.0714598 -0.3057928 -0.9494128
96.53748 30.16289 443.5699 0.233018 -0.2684905 -0.9346741
96.98458 30.18675 443.8451 0.3850496 -0.1645035 -0.9081165
97.47974 30.07721 443.9796 0.4080209 -0.0844783 -0.9090558
97.9707 29.94677 444.0386 0.3138234 -0.07839634 -0.9462394
98.55968 29.50185 444.0821 0.2654312 -0.0355418 -0.9634745
99.10872 29.22112 444.063 0.3246669 -0.0584643 -0.9440198
99.61946 28.74003 444.1562 0.4730204 -0.09427761 -0.8759929
100.124 28.93925 444.3546 0.6253689 -0.03797873 -0.7794044
100.5288 28.97849 444.6691 0.694568 -0.03127626 -0.7187468
100.9367 29.02791 444.9568 0.6797785 -0.05208448 -0.7315657
101.3239 29.20794 445.358 0.7033771 -0.07228664 -0.7071317
101.7557 29.52079 445.7821 0.7906511 -0.03528267 -0.6112495
101.8283 30.66398 446.9156 0.9184437 0.0483397 -0.3925868
102.1618 31.30947 447.6291 0.9119474 -0.3662759 -0.1849161
102.4593 31.81323 448.2703 0.9293565 -0.333587 -0.1581658
102.7365 32.17569 448.786 0.9918693 -0.01170017 -0.1267221
92.43505 33.13997 443.3126 -0.5578777 -0.2950449 -0.7757068
92.83517 32.83279 443.2026 -0.4941724 -0.2873402 -0.8205056
93.36057 32.54804 443.1929 -0.4279332 -0.2773637 -0.8601992
93.84795 32.40443 443.3453 -0.3437856 -0.2295718 -0.9105539
94.55099 31.57596 443.0413 -0.2548312 -0.197496 -0.9466026
95.27574 30.82853 442.7541 -0.1276207 -0.1775624 -0.9757994
95.75459 30.6503 442.7726 -0.1242359 -0.1963367 -0.9726343
96.37448 30.36675 442.9295 -0.01982075 -0.2891027 -0.9570931
96.80409 30.40541 443.0202 0.1364557 -0.2831887 -0.9493072
97.22658 30.38146 443.3989 0.3232962 -0.3268294 -0.8880666
97.67226 30.43983 443.7004 0.266933 -0.5630824 -0.7821029
98.04713 30.44353 443.8281 0.02370342 -0.6244943 -0.7806697
98.6112 30.19173 443.9248 0.1443536 -0.2383568 -0.9603897
99.13484 30.18564 444.2342 0.3290935 -0.1869832 -0.9255998
99.49329 30.34515 444.5453 0.5643891 -0.1942412 -0.8023311
99.94333 30.42114 444.8915 0.6010086 -0.090827 -0.7940649
100.3279 30.55353 445.1905 0.6564738 -0.08169167 -0.7499124
100.7837 30.62757 445.5356 0.7441759 -0.04771673 -0.6662772
101.1312 30.80183 445.8521 0.8271772 -0.0389977 -0.5605863
101.646 30.99524 446.302 0.8934577 -0.1000763 -0.4378562
101.9727 31.35968 446.8213 0.937057 -0.1261914 -0.3255762
102.2522 31.73556 447.3405 0.9589671 -0.1568504 -0.2361775
102.554 32.10656 447.8516 0.9711592 -0.1281613 -0.2010592
91.35875 35.22861 443.8196 -0.5855016 -0.208074 -0.7835135
92.24371 33.94576 443.1383 -0.5418677 -0.2242153 -0.8100044
92.84238 33.49213 443 -0.4494733 -0.2720614 -0.8508564
93.58296 32.78224 442.7817 -0.377077 -0.3114196 -0.8722562
94.06127 32.58042 442.8759 -0.3398765 -0.2811683 -0.8974567
94.5206 32.36925 442.9058 -0.3030587 -0.2530012 -0.9187742
95.03384 32.1997 442.8904 -0.1662467 -0.1740513 -0.970602
95.92881 31.10187 442.5917 -0.03359795 -0.1356442 -0.9901878
96.41814 30.9414 442.6499 0.1254436 -0.1866492 -0.9743849
96.92631 30.59314 442.8335 0.3023051 -0.4675016 -0.8306949
97.28931 30.6607 443.0021 0.3310027 -0.5420398 -0.7724184
97.79887 30.83303 443.3058 0.3448123 -0.3610404 -0.8664607
98.27797 30.71391 443.4924 0.1792864 -0.2871119 -0.9409693
98.87685 30.54389 443.5233 0.1509453 -0.2985154 -0.9423928
99.27976 30.5097 443.8284 0.2931856 -0.2089621 -0.9329401
99.72062 30.60823 444.1725 0.5373322 -0.1589169 -0.8282629
100.1117 30.69841 444.4131 0.6090686 -0.1377776 -0.7810587
100.5883 30.78946 444.8342 0.6733254 -0.1107745 -0.7310005
100.9708 30.91485 445.1341 0.7551256 -0.0705186 -0.6517763
101.3103 31.06131 445.4396 0.8313478 -0.09133139 -0.5481965
101.6683 31.33571 445.9295 0.8941297 -0.135561 -0.4267966
101.982 31.68593 446.4476 0.9108688 -0.2649567 -0.3164111
102.3821 32.14254 447.0415 0.9485735 -0.03449012 -0.3146727
102.3275 33.92913 448.6269 0.9295581 -0.03906257 -0.3666005
91.73459 35.34957 443.3612 -0.5821347 -0.204564 -0.7869388
92.19911 34.83168 443.0656 -0.4632202 -0.1346625 -0.8759526
92.97192 34.06977 442.8656 -0.3374712 -0.1938233 -0.9211655
93.73322 33.14883 442.4677 -0.3011284 -0.2159415 -0.9288117
94.30888 32.89273 442.5303 -0.2801165 -0.2901903 -0.9150544
94.85358 32.66481 442.5641 -0.2918528 -0.304614 -0.90666
95.34872 32.4622 442.6718 -0.241915 -0.2666203 -0.9329475
95.84028 32.34036 442.8239 -0.08634976 -0.2083925 -0.9742261
96.24424 32.30717 442.9874 0.1115109 -0.1212342 -0.9863406
97.02344 31.38467 442.6813 0.4122496 -0.1008747 -0.9054692
97.49543 31.2632 442.8343 0.4663945 -0.08983786 -0.880003
97.99378 31.26515 443.0226 0.3953283 -0.04170527 -0.9175926
98.45283 31.103 443.1172 0.2757061 -0.08249655 -0.9576955
99.00959 30.75829 443.42 0.2889402 -0.3289895 -0.8990437
99.49782 30.86153 443.485 0.3546468 -0.2218316 -0.9083042
99.8227 30.97521 443.899 0.6019396 -0.3118827 -0.7351177
100.2212 31.00722 444.2148 0.5921074 -0.4581759 -0.6629357
100.6183 31.06022 444.4804 0.6765867 -0.3864801 -0.6267883
101.1574 31.19962 444.7144 0.7732621 -0.2934609 -0.5620911
101.4829 31.52119 445.2276 0.8101368 -0.1683102 -0.5615605
101.8043 32.00219 445.8479 0.8649303 -0.07217459 -0.4966754
102.1552 32.35066 446.3472 0.9151155 -0.04588399 -0.4005722
102.2434 33.66592 447.5602 0.9642485 0.04113034 -0.2617882
102.4969 34.33251 448.3102 0.9193555 -0.3326032 -0.210144
91.69923 36.04397 443.178 -0.5864946 -0.1711699 -0.7916596
92.61023 34.99384 442.7537 -0.5203327 -0.220885 -0.8249022
92.90591 34.86269 442.698 -0.4390373 -0.2383244 -0.866284
93.6947 34.17482 442.5968 -0.312987 -0.2174282 -0.9245346
94.34877 33.5621 442.3679 -0.2339566 -0.2253494 -0.9457707
95.0282 32.99059 442.3554 -0.2287242 -0.2287938 -0.9462234
95.49241 32.79145 442.2877 -0.2024576 -0.2808983 -0.9381404
96.10665 32.57071 442.3889 -0.1231677 -0.2831628 -0.9511303
96.50199 32.54234 442.6349 0.003568663 -0.2602603 -0.9655319
96.95319 32.62317 442.9963 0.3806083 -0.2399489 -0.8930632
97.33096 32.79818 443.3071 0.3001119 -0.2116827 -0.9301201
97.77547 32.74659 443.5508 0.2984071 -0.1211579 -0.9467176
98.33034 32.51826 443.5844 0.26106 -0.1232162 -0.9574264
98.9001 32.22705 443.5779 0.3270236 -0.09036457 -0.9406858
99.4249 31.93576 443.6711 0.523614 -0.07890058 -0.8482943
99.90225 31.80155 443.8587 0.6197116 -0.07518348 -0.7812201
100.3237 31.81219 444.1415 0.6609164 -0.06184733 -0.7479067
100.7147 32.18014 444.5925 0.7090398 -0.03791597 -0.7041484
101.0866 32.53208 445.0739 0.7867836 -0.02843284 -0.6165738
101.4595 32.70242 445.488 0.8142586 -0.02582079 -0.5799279
101.5756 33.75143 446.4606 0.9167956 -0.01120785 -0.3991994
102.081 34.14989 447.0364 0.9295818 -0.3085094 -0.2017411
102.3302 34.38728 447.4828 0.9433321 -0.2793847 -0.1790774
102.6279 34.75359 448.0068 0.981832 -0.04840274 -0.1834748
91.08923 37.40477 443.3079 -0.5244407 -0.1271802 -0.841895
91.8146 36.61739 442.9791 -0.5867181 -0.1113728 -0.8020961
92.70531 35.25748 442.252 -0.5025749 -0.2044038 -0.8400224
93.1881 35.14598 442.4207 -0.4267673 -0.3348564 -0.8400839
93.72041 34.86161 442.4301 -0.3349398 -0.2610096 -0.905367
94.30022 34.56327 442.4464 -0.2580266 -0.2073396 -0.9436274
95.01753 33.83119 442.2342 -0.1480135 -0.1545659 -0.9768323
95.61882 33.38226 442.1287 -0.06697832 -0.1791873 -0.9815323
96.28546 32.86299 442.2125 0.01807176 -0.256816 -0.9662914
96.64994 32.88454 442.3108 0.07674377 -0.2629192 -0.9617609
97.14822 32.91254 442.5096 0.3986408 -0.123479 -0.9087566
97.56699 32.97967 442.7672 0.2941671 -0.1003214 -0.9504743
97.95035 32.96069 443.0955 0.09878686 -0.1675953 -0.980894
98.55684 32.77438 443.1842 0.1673211 -0.1578754 -0.9731799
99.01392 32.74878 443.4796 0.2379319 -0.1989934 -0.9506788
99.4512 32.88484 443.841 0.5024342 -0.4171279 -0.7573403
99.81844 33.07019 444.1006 0.6657607 -0.3862921 -0.6383895
100.234 33.20129 444.4919 0.7283117 -0.3359317 -0.5972537
100.8364 33.24567 444.7006 0.7900406 -0.2705936 -0.5501046
101.2038 33.37053 445.0498 0.8356305 -0.134141 -0.5326612
101.5534 33.56528 445.5066 0.892608 -0.1173847 -0.4352835
101.7452 33.79409 445.8411 0.938721 -0.07497204 -0.3364256
102.0463 34.3436 446.552 0.9565272 -0.0107305 -0.2914457
102.4401 34.95432 447.2892 0.9600377 -0.02061438 -0.2791106
91.14914 38.14756 443.231 -0.5759943 -0.2885767 -0.764823
91.71989 37.50092 442.8955 -0.523849 -0.2108148 -0.8253117
92.64879 36.39493 442.4591 -0.5088313 -0.1677395 -0.8443663
93.44109 35.47832 442.0915 -0.3881402 -0.3702883 -0.8439395
94.10052 35.12872 442.0932 -0.2846228 -0.3939538 -0.8739511
94.44199 34.95161 442.1514 -0.287707 -0.375228 -0.881152
94.98086 34.66376 442.1216 -0.1610954 -0.2539565 -0.9537057
95.62905 34.27433 442.112 -0.05733586 -0.1629416 -0.9849683
96.28722 33.64789 442.0704 0.1346207 -0.1196404 -0.9836481
96.80827 33.3775 442.0789 0.3255661 -0.1089609 -0.93922
97.33734 33.18744 442.1148 0.548716 -0.1323142 -0.8254718
97.78872 33.16007 442.2952 0.3611141 -0.1917866 -0.9125868
98.23396 33.22218 442.8405 0.1174104 -0.1557608 -0.9807923
98.93211 32.70373 442.7572 0.05581712 -0.7349845 -0.675783
99.32788 32.63937 442.5562 0.1655732 -0.5363222 -0.8276136
99.55965 33.09145 443.19 0.5024342 -0.4171279 -0.7573403
100.0476 33.26561 443.6718 0.6394243 -0.1125825 -0.7605667
100.4147 33.408 443.9855 0.7234334 -0.174568 -0.6679597
100.8233 33.54637 444.356 0.7641861 -0.1301357 -0.631731
101.2111 33.73167 444.7509 0.8304311 -0.1587871 -0.5340139
101.6051 34.00419 445.2453 0.9077904 -0.08740225 -0.4102165
101.858 34.20191 445.6966 0.930409 -0.06834661 -0.3600944
102.1263 35.16839 446.6253 0.9448184 -4.881986E-05 -0.3275946
102.2138 36.70833 447.9505 0.9480281 0.06465544 -0.3115484
102.6596 36.68438 448.2159 0.9702979 0.09408771 -0.2228663
92.15165 37.65596 442.5284 -0.5490452 -0.2950374 -0.7819862
92.60442 37.26552 442.3214 -0.5186008 -0.1573323 -0.8404164
93.52248 35.99147 441.7871 -0.3582148 -0.1726582 -0.9175356
94.04971 35.66164 441.7517 -0.2637421 -0.2297659 -0.9368287
94.77172 35.21662 441.8649 -0.2441739 -0.3019356 -0.9215282
95.26389 35.00757 441.8788 -0.1605844 -0.3459636 -0.9244037
95.74776 34.86269 442.0121 -0.07259655 -0.2795115 -0.957394
96.25101 34.79486 442.1167 0.1705219 -0.2360063 -0.9566732
96.75848 34.82224 442.4254 0.3555959 -0.06848855 -0.9321271
97.20892 34.76573 442.5957 0.4847761 -0.0844233 -0.8705544
97.63673 34.64536 442.8315 0.3887463 -0.0548701 -0.9197095
98.1374 34.53065 442.8885 0.2930116 -0.07100425 -0.9534688
98.78443 33.88209 442.8073 0.3066715 -0.02458114 -0.951498
99.31746 33.409 442.8339 0.3976844 -0.0619621 -0.9154277
99.78004 33.47633 443.0069 0.6445087 -0.03723243 -0.76369
100.2582 33.61463 443.3289 0.7000217 -0.02765365 -0.7135859
100.632 33.71192 443.6592 0.6969499 -0.08438437 -0.7121377
101.0231 33.88666 444.0364 0.7561653 -0.1470207 -0.6376511
101.4382 34.19383 444.5083 0.7861819 -0.02985506 -0.6172737
101.6688 34.88807 445.2605 0.8749214 -0.01054607 -0.4841501
101.8477 35.87 446.2035 0.9413896 0.0762284 -0.3285952
102.061 36.82699 447.1501 0.946214 0.08073644 -0.3133064
102.5345 36.73259 447.2883 0.9666952 0.0252227 -0.2546844
90.65097 40.09856 443.1608 -0.5926478 -0.2337347 -0.7708027
91.54274 38.78899 442.4708 -0.6087745 -0.2431163 -0.7551742
92.26747 37.99749 442.1435 -0.566589 -0.2368592 -0.7892241
92.92355 37.40767 441.836 -0.5020725 -0.1803724 -0.8458068
93.34545 37.5051 442.3444 -0.3990996 -0.282043 -0.8724512
94.33661 35.97924 441.48 -0.1316137 -0.1799942 -0.9748231
94.87215 35.70199 441.5931 -0.1280623 -0.1726802 -0.9766175
95.29272 35.6241 441.5396 -0.1027028 -0.2274016 -0.9683701
95.94849 35.26064 441.7737 -0.0390823 -0.2752945 -0.9605653
96.3878 35.16763 441.8812 0.1188382 -0.2857461 -0.9509085
96.83716 35.19168 442.1357 0.3510104 -0.235016 -0.9063991
97.40804 35.29977 442.4018 0.3419813 -0.6478656 -0.6806755
97.79559 35.2862 442.6723 0.1862846 -0.642701 -0.7431242
98.10505 35.26865 442.7162 0.0398312 -0.5622568 -0.826003
98.74294 34.96017 442.9784 0.1824868 -0.1375349 -0.9735414
99.15691 35.0021 443.2395 0.4425872 -0.08843488 -0.8923541
99.6794 35.12172 443.5138 0.6537455 -0.04980147 -0.7550738
100.0383 35.05387 443.8407 0.6944606 -0.02635488 -0.7190478
100.5223 35.21152 444.1074 0.7329506 -0.007113553 -0.6802447
100.92 35.24377 444.4362 0.8210459 0.007571426 -0.570812
101.148 36.17049 445.1296 0.8675248 -0.01975838 -0.4970013
101.7217 36.31691 445.7191 0.9302469 -0.1402235 -0.339084
101.8672 36.47876 446.0973 0.9649633 -0.04331737 -0.2587844
102.2503 36.96241 446.685 0.9733298 0.01647325 -0.2288183
90.85219 40.30617 442.691 -0.5374311 -0.2282899 -0.8118199
91.53525 39.94126 442.6591 -0.5770409 -0.1447831 -0.8037796
92.48413 38.40086 441.9284 -0.5456359 -0.1845647 -0.8174456
93.19016 37.82997 441.7567 -0.4511257 -0.2413378 -0.85921
93.66203 37.53012 441.6797 -0.3998649 -0.2196815 -0.8898586
94.14361 37.2983 441.7965 -0.3299999 -0.1895566 -0.9247532
94.72124 37.0832 441.8876 -0.1916073 -0.168833 -0.9668413
95.49234 36.07554 441.5397 -0.04727933 -0.1499486 -0.9875627
96.10613 35.69869 441.4733 0.06823047 -0.2708938 -0.9601881
96.57525 35.61294 441.5372 0.2224273 -0.2076318 -0.9525835
96.99806 35.59528 441.8111 0.376135 -0.3081308 -0.8738295
97.39163 35.64051 442.0608 0.3419813 -0.6478656 -0.6806755
97.91161 35.64854 442.3441 0.2786941 -0.186509 -0.9420956
98.42469 35.48993 442.4897 0.135108 -0.2601251 -0.9560758
99.00258 35.33826 442.6059 0.1631831 -0.1602989 -0.9734864
99.39793 35.3215 442.8897 0.384053 -0.1355015 -0.9133141
99.88448 35.48887 443.287 0.6643807 -0.3697543 -0.6495231
100.2751 35.62118 443.6044 0.7023345 -0.4348751 -0.5635689
100.7334 35.84497 443.9695 0.7575772 -0.22568 -0.6124911
101.0879 36.05982 444.4097 0.814431 -0.1567289 -0.5586933
101.3825 36.29519 444.8383 0.8768424 -0.1429148 -0.4590455
101.5701 36.39144 444.9981 0.9158522 -0.09179451 -0.3908817
102.1147 36.97491 445.8508 0.9499888 -0.0326094 -0.310577
102.0179 38.69488 447.3411 0.9667728 -0.04401356 -0.2518196
102.4721 38.71391 447.6052 0.9811577 0.002870867 -0.1931874
91.28936 40.46917 442.3102 -0.5786102 -0.2471077 -0.7772696
91.94818 39.90805 442.1847 -0.5734683 -0.189058 -0.7971143
92.25931 39.92648 442.2258 -0.5236558 -0.1780772 -0.8331105
93.08445 38.6748 441.5973 -0.4449708 -0.2004058 -0.8728337
93.90728 37.8179 441.3488 -0.3522457 -0.1907684 -0.9162589
94.38071 37.58723 441.3872 -0.3078803 -0.2303838 -0.9231106
94.95364 37.34141 441.4661 -0.2212191 -0.2566012 -0.9408603
95.4304 37.12932 441.5532 -0.07671826 -0.1793177 -0.9807954
96.00079 36.86079 441.5993 0.09156746 -0.1510326 -0.9842787
96.70265 36.00463 441.2642 0.2166295 -0.1485962 -0.9648787
97.18069 36.0551 441.4808 0.5261369 -0.07776342 -0.846837
97.60986 36.00854 441.7928 0.5260854 -0.1373874 -0.8392609
98.1103 35.9785 441.9649 0.3117713 -0.07246409 -0.9473899
98.55962 35.80287 442.0717 0.1762391 -0.1174695 -0.977313
99.21207 35.55928 442.1377 0.2743172 -0.4646171 -0.8419508
99.60939 35.49675 442.3554 0.4679396 -0.4570004 -0.7564279
99.85614 35.76505 442.7902 0.6643807 -0.3697543 -0.6495231
100.2462 35.99356 443.2502 0.7023345 -0.4348751 -0.5635689
100.677 36.15935 443.582 0.7717665 -0.3769565 -0.5121331
101.0478 36.4231 444.107 0.8473617 -0.2384429 -0.4744714
101.5207 36.59761 444.4508 0.8693258 -0.1214124 -0.4790946
101.8564 36.93804 444.9337 0.9161673 -0.009090397 -0.400693
101.9309 38.41125 446.2744 0.9545922 0.003294386 -0.2978972
102.1789 39.17519 447.0479 0.9655998 -0.1395824 -0.2193941
90.53002 41.97358 442.4684 -0.5807089 -0.2043354 -0.7880509
91.10625 41.49085 442.3197 -0.6657104 -0.2329943 -0.7089029
91.75919 40.6367 441.8254 -0.617293 -0.3035142 -0.7258295
92.39028 39.98522 441.6956 -0.5048915 -0.3170951 -0.8028296
93.22509 39.2546 441.4681 -0.3890129 -0.1573958 -0.9076869
93.99509 38.27245 441.0006 -0.2515198 -0.1476201 -0.9565282
94.55434 38.0068 441.1028 -0.2588674 -0.1529962 -0.9537191
95.20219 37.62313 441.1813 -0.1442535 -0.2927228 -0.9452536
95.65405 37.4488 441.2057 -0.1407332 -0.2514003 -0.9575971
96.11845 37.38168 441.4026 0.03547454 -0.2041137 -0.9783043
96.64105 37.42023 441.6834 0.3636108 -0.2033393 -0.9090877
96.94124 37.63378 441.9829 0.4157425 -0.09793676 -0.9041939
97.46642 37.60328 442.3058 0.3756483 -0.1144215 -0.9196717
97.88479 37.53448 442.4806 0.2986653 -0.1078101 -0.9482489
98.44645 37.25496 442.5402 0.2838641 -0.08216254 -0.9553378
98.99823 36.95177 442.5042 0.4062982 -0.06466793 -0.9114494
99.60154 36.50673 442.5052 0.5366601 -0.07771584 -0.840212
100.047 36.53559 442.7799 0.6869981 -0.04252589 -0.7254137
100.4129 36.54588 443.124 0.7308198 -0.07121061 -0.6788457
100.8189 37.08359 443.6598 0.7968501 -0.06047163 -0.6011432
101.1466 37.43335 444.1844 0.8354846 -0.001684527 -0.5495114
101.3761 38.11677 444.9461 0.8986154 0.02239366 -0.4381653
101.7393 38.6171 445.5529 0.9561439 -0.01623647 -0.292447
102.0083 38.98953 446.0908 0.9619117 -0.06546734 -0.265405
102.1971 39.51177 446.7339 0.9649708 -0.1335768 -0.2258065
69.61504 105.2944 486.7587 -0.6915728 -1.526198 -0.4386866
90.49391 42.88803 442.4406 -0.6497312 -0.2822607 -0.7058176
91.27798 41.90233 441.996 -0.6207699 -0.186863 -0.761398
92.16869 40.7971 441.4816 -0.5946249 -0.2815282 -0.7531024
92.94425 40.05731 441.2458 -0.4760009 -0.4347433 -0.7644747
93.34233 39.79259 441.2125 -0.4501287 -0.3421181 -0.8248269
93.85004 39.64375 441.3608 -0.33276 -0.2381218 -0.9124521
94.66583 38.5826 440.9155 -0.2119691 -0.1387922 -0.9673706
95.14458 38.41533 440.9034 -0.06402155 -0.1181999 -0.9909239
95.81805 37.85763 441.0213 0.0320292 -0.1464056 -0.9887061
96.27447 37.84217 441.106 0.154789 -0.1146287 -0.9812751
96.72932 37.77331 441.3536 0.3575951 -0.1286342 -0.9249751
97.16188 37.8546 441.5712 0.3881046 -0.09633471 -0.9165667
97.67367 37.92057 441.9572 0.2116168 -0.3500249 -0.9125246
97.97047 37.77874 442.1146 0.1105825 -0.2994242 -0.9476903
98.68358 37.57995 442.1661 0.2339728 -0.1821093 -0.9550356
99.13321 37.62699 442.4884 0.3955653 -0.2816372 -0.8741903
99.48863 37.84754 442.9046 0.5979707 -0.2426429 -0.763908
99.85974 38.03835 443.1935 0.6973148 -0.1891833 -0.6913478
100.2797 38.2406 443.6962 0.7857882 -0.1479172 -0.6005476
100.6783 38.42722 444.0849 0.834323 -0.267436 -0.4820611
101.1603 38.47031 444.3352 0.8704498 -0.02436004 -0.491654
101.5559 38.81088 444.8311 0.9301479 -0.04046161 -0.364949
101.7628 39.06048 445.2855 0.9435419 -0.1294304 -0.30492
102.1273 39.88105 446.1065 0.9598652 0.01337595 -0.2801426
102.3302 40.57736 446.8742 0.9724489 0.06545878 -0.2237369
90.77449 42.94967 441.8767 -0.599811 -0.2844424 -0.7478766
91.45174 42.31545 441.675 -0.6081126 -0.2326695 -0.7589889
92.28435 41.16331 441.1088 -0.5763018 -0.2377678 -0.7818841
93.02184 40.40683 440.8452 -0.4453121 -0.3260604 -0.8338955
93.49609 40.18896 440.9071 -0.3254819 -0.4359974 -0.839028
94.07407 39.96424 441.0114 -0.2797353 -0.3073881 -0.9095388
94.47928 39.78503 441.1693 -0.1975087 -0.2285045 -0.9532974
95.16132 39.72429 441.252 -0.05721993 -0.1218128 -0.9909024
95.89619 38.56221 440.8634 0.1498332 -0.1242915 -0.9808679
96.39828 38.40382 440.8666 0.2591595 -0.1270932 -0.957436
96.90318 38.16358 441.0797 0.4979487 -0.1764195 -0.8490721
97.38805 38.14504 441.226 0.4057255 -0.2084679 -0.8899034
97.84805 38.15544 441.4912 0.2770912 -0.1765973 -0.9444755
98.48623 37.97531 441.7202 0.08623527 -0.4987195 -0.8624631
98.79465 37.82178 441.7606 0.0917942 -0.5366196 -0.8388166
99.17178 37.96199 442.0847 0.3457469 -0.3977043 -0.8498768
99.69841 38.1183 442.462 0.5864413 -0.08365365 -0.8056604
100.0483 38.26928 442.7731 0.6783047 -0.07555681 -0.7308857
100.4724 38.4291 443.1524 0.7725886 -0.08688565 -0.628934
100.844 38.61739 443.4808 0.8571935 -0.1703401 -0.4860079
101.1729 38.81883 443.9489 0.8978957 -0.1538008 -0.4124666
101.5895 39.2705 444.5621 0.9159318 -0.0154072 -0.4010378
101.8176 39.9306 445.32 0.9329354 -0.01845581 -0.3595705
101.8958 41.46511 446.6571 0.9652819 0.03264231 -0.2591627
91.72107 42.60413 441.3109 -0.601891 -0.2262478 -0.7658585
92.2383 42.26122 441.275 -0.4991131 -0.2193941 -0.8383033
93.12778 40.94507 440.6898 -0.3378238 -0.2348399 -0.9114414
93.75639 40.52455 440.5941 -0.3153614 -0.2463888 -0.9164278
94.31847 40.27706 440.6461 -0.2127193 -0.3461527 -0.9137445
94.8848 40.01492 440.6954 -0.1972568 -0.3036862 -0.932129
95.28744 39.88247 440.8561 -0.07744432 -0.2840139 -0.9556875
95.79416 39.78653 441.0359 0.0965074 -0.1901433 -0.9770015
96.3232 39.61646 441.105 0.2209088 -0.1179454 -0.9681365
96.82998 39.37658 441.3222 0.4189726 -0.1069418 -0.9016793
97.30479 39.38686 441.4977 0.4184468 -0.1372494 -0.8978112
97.77298 39.43647 441.6396 0.3506078 -0.09376481 -0.9318167
98.40463 38.76772 441.6313 0.3051032 -0.06905917 -0.9498121
98.91709 38.47925 441.698 0.3361959 -0.08255872 -0.9381664
99.4184 38.50629 441.8654 0.5715401 -0.03982948 -0.819607
99.81365 38.43536 442.1239 0.6988898 -0.06127944 -0.7125994
100.2557 38.59747 442.4559 0.6908448 -0.04449408 -0.7216328
100.7274 38.88148 442.8706 0.7449597 -0.06406476 -0.6640263
101.0388 38.9748 443.2619 0.8108113 -0.1134782 -0.5742019
101.3552 39.63675 443.9555 0.8671654 -0.04595349 -0.4958955
101.5565 40.48859 444.831 0.9366905 0.00674345 -0.3500935
101.7434 41.46566 445.8228 0.9599515 0.01296215 -0.2798664
102.1363 41.67037 446.2124 0.9736845 0.007862169 -0.2277642
90.32903 44.75691 441.6772 -0.6689917 -0.0898058 -0.7378244
90.72627 44.97319 442.0881 0.3442986 -0.7780976 0.5253785
91.78968 43.12688 441.031 -0.5234013 -0.2824081 -0.8039258
92.649 42.3653 440.7383 -0.4629263 -0.1955941 -0.8645474
92.98243 42.13005 440.7831 -0.3945043 -0.1716717 -0.9027156
93.6638 41.56319 440.5827 -0.2523346 -0.1986117 -0.9470379
94.41933 40.75523 440.3925 -0.09649289 -0.1853472 -0.9779242
94.96165 40.44872 440.4007 -0.0642492 -0.222681 -0.9727719
95.5138 40.13008 440.6191 0.006107351 -0.2578745 -0.9661593
95.96701 40.12642 440.7112 0.1068632 -0.249088 -0.9625671
96.44035 40.1325 440.8696 0.2184049 -0.2518294 -0.9428051
96.94502 40.04777 441.0753 0.3317263 -0.2018419 -0.9215299
97.47495 40.09461 441.3323 0.1540878 -0.4569066 -0.876067
97.85731 40.0191 441.4914 0.1857676 -0.3463999 -0.9195095
98.34469 39.95318 441.8054 0.3040588 -0.19139 -0.93323
98.76501 40.04934 442.1335 0.5200427 -0.1465182 -0.8414798
99.22614 40.06917 442.3978 0.6653397 -0.02462163 -0.7461346
99.67182 40.10313 442.674 0.7080922 -0.007786787 -0.706077
100.0496 40.16594 443.0139 0.6838974 0.004726064 -0.7295628
100.4841 40.48045 443.454 0.7418562 -0.0327966 -0.6697565
100.8463 40.80396 443.9715 0.8212695 -0.1201106 -0.5577542
101.3453 40.97236 444.3205 0.911653 -0.03941048 -0.4090667
101.6592 41.36669 444.8628 0.9629998 -0.1183245 -0.2421379
101.9495 41.63533 445.2687 0.9900482 -0.07551707 -0.1187497
102.0877 42.78357 446.3849 0.9858831 0.05431172 -0.1583811
90.84335 44.40369 440.9977 -0.6664913 -0.2182266 -0.712858
91.16976 44.55879 440.9638 -0.5987089 -0.2058025 -0.7740756
91.9616 43.53865 440.7069 -0.4867662 -0.2255713 -0.8439055
92.71278 42.75658 440.4757 -0.4304613 -0.2272563 -0.8735318
93.24538 42.42616 440.4309 -0.3694173 -0.2796874 -0.8861749
93.69476 42.21929 440.448 -0.2484728 -0.2052604 -0.9466412
94.41927 41.66454 440.4165 -0.1401024 -0.1310657 -0.9814241
95.12609 40.92169 440.1839 0.02360197 -0.1635106 -0.9862591
95.57739 40.89202 440.3677 0.1297122 -0.1405013 -0.9815468
96.08403 40.76202 440.5118 0.261062 -0.1478949 -0.9539255
96.58116 40.5117 440.7079 0.2355888 -0.3716228 -0.8979948
97.07153 40.48207 440.8897 0.2452312 -0.4168608 -0.875265
97.55856 40.42679 441.0213 0.2421525 -0.2150224 -0.9461119
98.03049 40.35368 441.2416 0.2114652 -0.2704523 -0.939222
98.62175 40.25967 441.3694 0.2984115 -0.231939 -0.9258267
98.99949 40.26803 441.6906 0.5055946 -0.2353098 -0.8300623
99.45892 40.48878 442.1125 0.700322 -0.4397301 -0.5623047
99.84404 40.63062 442.4372 0.71291 -0.4590505 -0.5301244
100.2876 40.79763 442.8001 0.7056599 -0.414491 -0.5746663
100.6411 40.89693 443.1417 0.7967703 -0.1322604 -0.5896308
101.0074 41.03554 443.4509 0.8454356 -0.06715542 -0.5298384
101.3819 41.23949 443.8128 0.8830888 -0.1060603 -0.4570617
101.611 41.65834 444.5061 0.9417639 -0.09964224 -0.3211728
101.7616 43.02666 445.7441 0.9687793 0.05565222 -0.2415978
101.9069 44.37105 446.9267 0.9730425 0.06250513 -0.2219942
91.18111 45.16397 440.7589 -0.5930896 -0.2269785 -0.7724801
91.8148 44.56556 440.7681 -0.5323834 -0.1903449 -0.8248253
92.75938 43.47329 440.3358 -0.3941222 -0.1717722 -0.9028634
93.44643 42.87229 440.1939 -0.3323223 -0.2317029 -0.9142624
94.08031 42.45528 440.1986 -0.2312547 -0.2401162 -0.9427968
94.47121 42.36628 440.2549 -0.1756701 -0.2550647 -0.9508324
95.01585 42.27451 440.3881 -0.02553434 -0.2263859 -0.973703
95.47278 42.08493 440.5578 0.1616454 -0.1649613 -0.9729639
96.10526 41.67427 440.472 0.3115841 -0.09482919 -0.945475
96.67979 41.18903 440.6007 0.3696185 -0.09416002 -0.9244004
97.1707 41.22713 440.6353 0.3741651 -0.0903848 -0.9229469
