ply
format ascii 1.0
element vertex 814
property float x
property float y
property float z
property float nx
property float ny
property float nz
end_header
128.9104 152.8499 512.7369 0.1400156 -0.9136658 0.3815893
129.1316 154.7496 514.3759 0.04307206 -0.7355423 -0.6761082
129.7775 154.2271 514.4415 -0.2463986 -0.9492433 0.1955117
130.3769 153.9846 514.4321 -0.3605977 -0.9043972 -0.2281117
131.09 152.9951 514.0825 -0.3511718 -0.9201339 0.1732967
131.6672 152.837 514.2836 -0.09280513 -0.968973 0.2290818
132.2346 152.8202 514.4691 0.0005425688 -0.9786922 0.2053323
132.7199 153.1172 515.2542 0.03295257 -0.9762362 0.2141891
133.2718 153.1174 515.4097 0.09744887 -0.9690877 0.2266556
133.8118 153.2109 515.7764 0.04916546 -0.9787292 0.1991775
134.3452 153.303 516.1517 0.07678713 -0.9775229 0.1963485
134.8797 153.4209 516.5122 0.1023134 -0.9696651 0.2219946
135.406 153.6446 517.0823 0.1289836 -0.9675301 0.2173675
135.8961 153.8892 517.4288 -0.05186074 -0.9864615 0.1555772
136.2738 153.8584 518.0288 -0.3650772 -0.9309199 0.01033946
137.0733 153.4753 517.8123 -0.4543801 -0.8907368 -0.01124873
137.7213 153.1043 517.8151 -0.4085333 -0.9122874 0.02884769
138.2794 152.9309 517.9877 -0.3096925 -0.949446 0.05140727
138.8012 152.8738 518.3712 -0.2086873 -0.9703172 0.122205
87.09124 84.51635 433.9242 -0.64376 -0.3838381 -0.6619979
88.16875 82.56202 432.9817 -0.6730933 -0.2872223 -0.6815047
88.58025 82.81153 433.4183 -0.6730933 -0.2872223 -0.6815047
89.29345 81.77654 433.0577 -0.4697444 -0.2160463 -0.855958
90.53344 80.06869 432.2694 -0.2975002 -0.2079555 -0.9317983
90.83429 79.91456 432.3773 -0.334899 -0.2091194 -0.9187555
91.52658 79.44722 432.4062 -0.2941965 -0.2372672 -0.9258254
92.20158 78.98029 432.4763 -0.2302159 -0.2120955 -0.9497453
92.65981 78.89211 432.5645 -0.01027546 -0.2173882 -0.9760311
93.14033 78.88374 432.8651 0.2401355 -0.1849667 -0.9529545
93.86345 78.06705 432.629 0.271974 -0.1392547 -0.9521756
94.5209 77.40715 432.4701 0.3578061 -0.2530013 -0.8988688
95.01785 77.45307 432.7707 0.203238 -0.1404186 -0.9690083
95.46638 77.31834 432.9366 0.2843756 -0.1604279 -0.945195
96.08467 77.15405 433.2489 0.3450696 -0.132879 -0.9291232
96.55074 77.18606 433.5099 0.5133137 -0.100166 -0.8523355
96.95267 77.37169 433.7973 0.6355423 -0.06323688 -0.769472
97.3917 77.46729 434.2024 0.6880035 -0.04202988 -0.7244893
97.81062 77.66041 434.5196 0.715135 -0.05358839 -0.6969292
98.28648 77.6068 434.9528 0.8156264 -0.01300781 -0.5784328
98.85891 77.54739 434.9557 0.8524534 -0.4623514 -0.2440375
98.34269 81.00642 437.4912 0.9684703 -0.01141968 -0.2488669
98.82228 80.74554 437.6273 0.9611873 -0.01293694 -0.2755934
99.39005 80.38798 437.6694 0.9853135 0.03158255 -0.1678088
86.89481 128.0312 468.4259 0.1589922 -0.8534061 0.4964063
87.50948 127.9122 468.5356 0.1053147 -0.8730686 0.4760882
87.81558 128.6152 469.5898 0.1823954 -0.8486877 0.4964485
88.31188 128.8118 469.7806 0.2729804 -0.7877541 0.5522003
88.82262 128.9698 470.2102 0.3159675 -0.7543041 0.5754908
88.67279 131.42 472.1155 0.4206407 -0.5609879 0.7129894
108.362 159.7063 505.7173 0.8936407 0.4218366 0.1531674
109.3985 157.4717 504.5334 -0.7940385 -0.6072407 0.02759736
110.1156 156.8624 504.4277 -0.4835852 -0.8741417 0.04496069
110.7876 156.206 504.3108 -0.5544811 -0.8146055 0.1702018
111.2071 156.8928 505.0837 -0.4534635 -0.8869359 0.08783805
111.9549 155.9957 504.7902 -0.3401689 -0.9283175 0.1500392
112.484 155.8748 505.2342 -0.3766717 -0.9135583 0.153393
113.1161 155.7703 505.2746 -0.6636781 -0.737735 -0.1236061
113.9669 154.3547 504.6228 -0.85536 -0.4510002 -0.2548691
115.0755 151.6467 503.0985 -0.8484117 -0.4161667 -0.3271132
115.635 151.7145 503.4702 -0.8296734 -0.4366587 -0.3478092
116.3038 150.5636 502.9721 -0.6908709 -0.6107109 -0.3869489
117.0927 150.1022 502.9925 -0.6420602 -0.713056 -0.2816204
117.8356 148.8969 502.4675 -0.1311157 -0.988849 0.07061344
118.2898 149.3412 503.0191 0.04733961 -0.9920519 0.1165848
118.6413 150.2118 504.1368 0.08079972 -0.9926119 0.090515
119.2243 150.2561 504.3427 0.1685718 -0.9574198 0.234373
119.9018 149.5614 504.0633 0.02338723 -0.9824091 0.185271
120.4049 149.8293 504.6506 0.01478897 -0.9589556 0.2831698
120.7274 150.213 505.4576 0.04049921 -0.9678382 0.2482921
121.5754 150.1354 505.222 -0.007668188 -0.9843635 0.1759818
122.022 150.0395 505.8532 -0.01846668 -0.9934013 0.1131933
122.5547 150.0834 506.0687 -0.01968844 -0.9894199 0.1437384
123.0851 150.2105 506.4577 -0.02387374 -0.9876577 0.1547973
123.6136 150.291 506.8622 0.1252507 -0.9376957 0.3240972
124.1398 150.4106 507.2588 0.2205146 -0.8977702 0.3812898
124.5244 151.3382 508.1659 0.1682854 -0.8530645 0.493924
125.0515 151.453 508.5604 0.09905627 -0.9198546 0.3795461
125.7084 151.2591 508.3695 0.07325301 -0.9233541 0.3768969
126.1127 151.6864 509.3362 0.04441623 -0.9566328 0.2878904
126.6535 151.7036 509.7008 0.07521804 -0.9511759 0.2993436
127.204 151.8264 509.9178 0.05000048 -0.9735512 0.2229302
127.7253 151.9505 510.5108 0.05385258 -0.9728943 0.224892
128.2339 152.127 510.8851 0.02444667 -0.9755344 0.2184833
128.7702 152.2349 511.2624 0.0379205 -0.969249 0.2431429
129.3 152.34 511.6482 0.03517259 -0.9668557 0.2528888
129.8305 152.4407 512.0333 -0.01509677 -0.9713181 0.2373041
130.3226 152.8026 512.5862 -0.06214335 -0.9632971 0.261145
130.9766 152.5585 512.5975 -0.02555017 -0.971783 0.2344886
131.4607 152.56 512.9744 -0.04046433 -0.9810665 0.1893967
131.9655 152.6723 513.5671 0.04836815 -0.9775797 0.2049347
132.5355 152.7705 513.7335 0.003065652 -0.980628 0.1958551
133.064 152.8588 514.3129 0.01608919 -0.9804986 0.1958665
133.6166 152.9604 514.4923 0.05619097 -0.974767 0.2160369
134.135 153.0323 514.8481 0.004500816 -0.9725469 0.2326632
134.6499 153.235 515.437 0.07778922 -0.9710013 0.2260645
135.1783 153.3935 515.785 0.07647201 -0.9688019 0.235743
135.6947 153.5469 516.1454 0.05589971 -0.9746114 0.2168127
136.2134 153.6775 516.7363 -0.112216 -0.9719638 0.2066251
136.7554 153.5923 516.8955 -0.349479 -0.9302941 0.1114322
137.4034 153.2237 516.9002 -0.4588112 -0.8848804 0.08049127
138.0506 152.8502 516.9016 -0.4081725 -0.9071543 0.1023051
138.6046 152.6892 517.0845 -0.3146614 -0.9402653 0.1299588
139.134 152.7021 517.451 -0.1894222 -0.9680462 0.1643339
87.51388 84.1448 433.0808 -0.6175914 -0.2416915 -0.7484424
88.0476 83.99654 433.2668 -0.5451087 -0.2501696 -0.8001698
89.11921 82.32639 432.5222 -0.5387419 -0.1399598 -0.8307638
89.80602 81.85965 432.5149 -0.4763022 -0.1756467 -0.8615593
90.21362 81.49718 432.4566 -0.3056591 -0.2087202 -0.9289824
90.90389 81.06049 432.5883 -0.2807322 -0.1680642 -0.9449571
91.72808 79.90702 432.1152 -0.1995352 -0.1312699 -0.9710581
92.29575 79.54768 432.1422 -0.1680937 -0.1920797 -0.9668764
92.8667 79.28253 432.2937 -0.02256792 -0.3006364 -0.9534718
93.34793 79.22659 432.4761 0.20639 -0.3231626 -0.9235633
93.82505 79.25895 432.7763 0.3216104 -0.3362993 -0.885138
94.3074 79.20686 432.9651 0.2060895 -0.3315363 -0.9206578
94.87221 78.97458 433.1279 0.2869873 -0.1360049 -0.9482304
95.45457 78.65616 433.239 0.3757642 -0.110354 -0.9201213
95.95713 78.48807 433.4097 0.5239358 -0.1226842 -0.8428759
96.44975 78.50594 433.655 0.6350183 -0.1262975 -0.7621027
96.91959 78.54055 433.9519 0.6750035 -0.09544578 -0.7316148
97.3168 78.97096 434.458 0.7052792 -0.09156249 -0.7029918
97.63087 79.20652 434.9476 0.7934949 -0.05163853 -0.6063821
98.11417 79.7726 435.5172 0.8483745 -0.4116875 -0.3328273
98.42924 80.03949 435.9872 0.9262044 -0.2886189 -0.2425786
98.80041 80.2907 436.4243 0.9549161 -0.007575226 -0.2967791
99.05463 80.64594 436.981 0.9623371 0.02742047 -0.2704723
87.54441 124.9168 465.4533 0.8987108 -0.03216422 0.4373605
87.35474 127.5486 467.4418 0.1670061 -0.8998584 0.402944
87.82324 127.7124 467.7186 0.145704 -0.882342 0.4474849
88.32009 127.9097 468.1275 0.2009619 -0.8677518 0.4545558
88.70691 128.5219 468.9597 0.2664514 -0.8155946 0.5136235
88.91566 129.7191 470.0424 0.350373 -0.7477065 0.5640689
89.45502 129.7108 470.3426 0.433584 -0.7049471 0.5612969
89.80193 130.4364 471.1073 0.454557 -0.600226 0.6581083
108.8543 158.8883 504.4401 0.9050403 0.425214 -0.009748212
109.8351 156.9354 503.434 -0.6631296 -0.7476841 0.03503513
110.3222 156.7005 503.6703 -0.5398544 -0.8348778 0.1074068
111.331 155.1524 502.8601 -0.5288278 -0.8206009 0.2166915
111.744 155.8273 503.6393 -0.4293713 -0.8546389 0.2919461
112.3844 155.4656 503.6956 -0.2342809 -0.9214501 0.3099066
112.909 155.6151 504.1168 -0.4724694 -0.8769453 0.08797459
113.5427 155.2419 504.1806 -0.5552428 -0.8274629 0.08372828
114.0813 154.7757 504.1584 -0.7044857 -0.7002454 -0.1155688
115.4392 151.3921 502.1968 -0.6953678 -0.471483 -0.542372
115.8163 152.1485 503.0321 -0.7320222 -0.3594348 -0.5787489
116.7859 150.7402 502.4001 -0.7719535 -0.566647 -0.2880954
117.4705 149.5197 501.8582 -0.6378977 -0.6877744 -0.3464865
117.8942 150.174 502.6067 -0.4036789 -0.8771076 -0.2602411
118.8163 148.2744 501.6301 0.01805519 -0.9973035 -0.07113054
119.1031 149.5024 502.8117 0.03676821 -0.9926472 0.1153234
119.6646 149.6095 503.0012 0.03165418 -0.9839795 0.1754493
120.2291 149.5849 503.4965 -0.1415999 -0.9882527 0.05749832
120.7613 149.5403 503.7532 0.01581746 -0.9759638 0.2173574
121.3154 149.5294 504.0038 0.1731903 -0.9553155 0.2395353
121.8531 149.9374 504.7489 0.04571128 -0.9850003 0.1663877
122.3342 150.0017 504.9788 -0.03066591 -0.9897664 0.1393627
122.956 149.9798 505.1754 -0.05490389 -0.9883757 0.1417711
123.4367 149.9574 505.5571 -0.04081125 -0.9832841 0.1774453
123.9608 150.0812 505.9526 -0.01413644 -0.9737082 0.2273599
124.4855 150.2012 506.3478 0.07794656 -0.938998 0.3349731
125.0163 150.3243 506.733 0.1437789 -0.9081376 0.3932093
125.4005 151.1993 507.6561 0.1205432 -0.8867267 0.4463015
125.9797 151.1774 508.0432 0.1351094 -0.9371086 0.3218276
126.5024 151.3281 508.4256 0.1124216 -0.9605216 0.2544788
126.9733 151.6145 508.8036 0.1665528 -0.9556756 0.2427843
127.4874 151.7374 509.4018 0.1197632 -0.9745036 0.1897352
128.0357 151.8502 509.5758 0.1635472 -0.9783027 0.1271852
128.546 152.0567 510.1749 0.08465736 -0.9882945 0.1269131
129.0666 152.1495 510.5389 0.02941025 -0.9885145 0.1482365
129.6543 152.1466 510.7242 -0.02904587 -0.9886451 0.1474356
130.1722 152.1909 511.1252 -0.03808163 -0.9738584 0.223941
130.708 152.2955 511.4996 -0.03388367 -0.9646286 0.2614262
131.2408 152.3498 511.8902 -0.01399858 -0.9638426 0.2661044
131.7689 152.4915 512.2637 -0.02594058 -0.9735652 0.2269317
132.3099 152.5538 512.6423 0.04400941 -0.9763125 0.2118419
132.8398 152.642 513.0215 0.03343006 -0.984199 0.1738814
133.3672 152.6892 513.3882 0.01699573 -0.9841893 0.1763023
133.9466 152.7614 513.546 0.03474837 -0.9823973 0.1835425
134.4518 152.8935 514.1531 0.03555306 -0.9727454 0.2291336
134.9786 153.0564 514.5007 0.09886718 -0.9632751 0.2496527
135.5032 153.2042 514.8534 0.06159841 -0.9693266 0.2379316
135.9754 153.2777 515.4831 0.02587699 -0.9715518 0.2354089
136.664 153.2878 515.3862 -0.1937177 -0.9607636 0.1985105
137.0903 153.1981 515.999 -0.3825016 -0.9138697 0.1361414
137.7331 152.9735 515.9906 -0.430624 -0.8948458 0.1175324
138.3659 152.5814 515.996 -0.3729493 -0.9222044 0.1022157
138.9358 152.455 516.1713 -0.2854224 -0.9427319 0.1725998
139.4605 152.4537 516.5428 -0.1635041 -0.9692385 0.1839653
86.71799 87.82284 434.7591 0.8683257 0.4883402 0.08680016
88.21136 84.27553 432.83 -0.5332305 -0.1995171 -0.8221059
88.99969 83.47838 432.6122 -0.509892 -0.1876094 -0.8395314
89.8033 82.29343 432.1071 -0.4806905 -0.2601033 -0.8374264
90.49915 81.83154 432.1619 -0.3423841 -0.250407 -0.9055768
90.9786 81.57244 432.2023 -0.3088497 -0.2178322 -0.9258298
91.59537 81.28564 432.3336 -0.1631718 -0.1667788 -0.972399
92.48348 80.00598 431.8556 -0.1273668 -0.1889988 -0.9736823
93.00098 79.79717 431.9305 0.02173001 -0.2269344 -0.9736676
93.5163 79.60598 432.1711 0.1930464 -0.3155545 -0.9290633
93.98592 79.62086 432.4072 0.3142321 -0.4580931 -0.8315099
94.49972 79.63454 432.6137 0.2499785 -0.2448756 -0.9367746
95.0518 79.41058 432.8164 0.2783535 -0.2262503 -0.9334506
95.57004 79.25143 432.993 0.3610521 -0.1745127 -0.9160713
95.99206 79.48355 433.3896 0.5111173 -0.2415037 -0.8248848
96.44076 79.65695 433.8021 0.6505316 -0.2102045 -0.7298101
96.97416 79.64848 433.9854 0.6768393 -0.2083771 -0.7060223
97.41351 79.74484 434.3293 0.7335066 -0.2257703 -0.6410895
97.86774 79.94411 434.7755 0.7853014 -0.1169734 -0.6079629
98.22543 80.19769 435.222 0.8444191 -0.04809679 -0.5335195
98.64935 80.4306 435.6309 0.9331207 -0.01986592 -0.3590142
98.86409 81.27842 436.4422 0.9409128 0.01096513 -0.3384714
99.0703 82.29085 437.3558 0.9506257 -0.005832855 -0.3102849
87.67655 125.6372 465.2347 0.7099596 -0.6068103 0.3574052
87.81815 127.0754 466.4525 0.2133139 -0.8269178 0.5202924
88.35121 127.0807 466.7585 -0.01661032 -0.900263 0.4350297
88.56348 128.2793 467.9109 0.1786231 -0.8541858 0.488324
89.24596 127.8432 467.9384 0.2236694 -0.8248902 0.5191609
89.56081 128.5418 468.5745 0.3356351 -0.77945 0.5289676
89.97909 128.9965 469.1923 0.4142022 -0.7132995 0.5653675
90.16553 130.4029 470.441 0.487082 -0.6295723 0.6053014
90.22168 132.1358 471.811 0.4885984 -0.4178796 0.7659296
108.5961 158.9813 503.4459 -0.6607044 -0.743686 0.1019849
109.5204 157.2931 502.6234 -0.7744006 -0.6326087 0.0104871
110.27 156.4012 502.3389 -0.7235461 -0.677684 0.1312453
110.9053 156.0341 502.4096 -0.6808729 -0.7151756 0.1579112
111.6506 155.1448 502.1248 -0.5363268 -0.8203248 0.1985467
112.393 154.2565 501.8388 -0.3215543 -0.9193888 0.2265543
112.8064 154.9285 502.6152 -0.2646441 -0.8934892 0.3628228
113.3357 155.0871 503.0258 -0.3356423 -0.8963037 0.2897996
113.9676 154.7153 503.0908 -0.3710673 -0.8989908 0.2326467
114.4916 154.8614 503.5089 -0.5629393 -0.8263675 -0.0147012
115.494 152.6804 502.3363 0.8879175 0.3369259 0.3131829
116.2725 151.5309 501.882 -0.770397 -0.4071837 -0.4906016
116.9041 151.1702 501.9358 -0.7117289 -0.522938 -0.4690179
117.7268 149.7796 501.3154 -0.6493404 -0.6743157 -0.3516467
118.3501 149.4722 501.4386 -0.3553058 -0.8909892 -0.2826588
118.8339 149.4502 501.6523 -0.1920218 -0.9678261 -0.162605
119.3972 149.6809 502.1737 -0.0395272 -0.9991393 0.01257603
119.862 149.6448 502.5413 -0.1100857 -0.9878856 0.1093759
120.6191 149.5109 502.3864 -0.1026485 -0.9935236 0.04872484
121.0788 149.4896 502.8362 0.07027178 -0.9879455 0.137933
121.6015 149.6408 503.4329 0.09944334 -0.9759364 0.1940595
122.0822 149.9043 503.8004 0.04436924 -0.9805222 0.1913311
122.4911 150.2764 504.4402 -0.06083291 -0.9845722 0.1640636
123.256 149.9038 504.4611 -0.07435931 -0.9848568 0.1566128
123.7896 149.8041 504.6522 -0.07882816 -0.9774145 0.1960793
124.3069 149.8697 505.0459 -0.04876377 -0.9766009 0.2094583
124.8288 149.9093 505.4582 -0.02446858 -0.9658905 0.2577921
125.3991 149.9551 505.6311 -0.04532915 -0.9733763 0.2246858
125.8892 150.1875 506.2269 0.1148362 -0.8796746 0.4615031
126.2803 151.0682 507.137 0.1889435 -0.8975621 0.3983498
126.7737 151.3638 507.7231 0.1277516 -0.9459423 0.298115
127.2868 151.5458 508.0959 0.1933274 -0.9507458 0.2422953
127.8169 151.6742 508.4723 0.2974163 -0.9376807 0.179718
128.3297 151.8261 508.8694 0.223922 -0.9717484 0.07459251
128.8619 151.9616 509.254 0.1228066 -0.9921978 0.02149403
129.4321 151.8205 509.5009 -0.01094681 -0.9974579 -0.07041221
129.9856 151.9772 509.8423 -0.05684054 -0.9983356 0.009749397
130.5179 151.9631 510.22 -0.01622309 -0.9959321 0.08863355
131.1054 151.9512 510.375 -0.02603264 -0.9953436 0.09280827
131.5823 152.1078 510.9883 0.01836659 -0.980597 0.1951723
132.1133 152.2419 511.349 0.002780486 -0.9747811 0.2231456
132.6436 152.3403 511.7283 0.02928427 -0.9663631 0.2555088
133.1707 152.4716 512.0993 0.005739939 -0.9709558 0.2391897
133.7114 152.5308 512.4755 0.007495608 -0.9697877 0.2438352
134.2442 152.5807 512.8603 0.004604606 -0.9749532 0.2223627
134.7757 152.6861 513.2346 0.02011433 -0.9766858 0.2137291
135.347 152.7258 513.3948 0.06623662 -0.9643882 0.2560624
135.8433 152.8958 513.9666 0.04033151 -0.968648 0.2451412
136.3399 153.0682 514.5252 -0.05242875 -0.9659677 0.2532934
136.9184 153.1195 514.7028 -0.2175969 -0.9517192 0.2165224
137.3647 152.9459 515.1285 -0.4258175 -0.892006 0.1516727
138.1023 152.4716 514.9044 -0.4273901 -0.8781978 0.2147235
138.6858 152.3678 515.0831 -0.2544043 -0.9449302 0.2058771
139.2038 152.2996 515.4568 -0.1888974 -0.9659007 0.1770695
139.7862 152.2059 515.6371 -0.03430504 -0.9761399 0.2144153
86.54443 87.7971 433.8495 -0.8840519 -0.3710506 -0.2842069
87.32827 86.83562 433.5279 -0.8431031 -0.4121661 -0.3453929
88.52864 84.4644 432.3333 -0.5286387 -0.2389041 -0.8145342
88.9863 84.23262 432.3974 -0.5286387 -0.2389041 -0.8145342
89.67996 83.71214 432.3692 -0.4727861 -0.1466386 -0.8688903
90.70627 82.2746 431.8553 -0.290944 -0.2203727 -0.9310142
91.25414 81.90141 431.8419 -0.210724 -0.3020368 -0.9297146
91.86003 81.63971 431.9679 -0.1817018 -0.2258556 -0.9570652
92.29185 81.47662 432.0768 -0.09007154 -0.1544137 -0.9838921
92.79861 81.45369 432.3315 0.02855558 -0.06725113 -0.9973274
93.68085 80.13828 431.8959 0.3271701 -0.1340316 -0.9354118
94.20457 80.11058 432.0644 0.2609366 -0.1646187 -0.9512164
94.67296 80.03193 432.3548 0.25258 -0.1996321 -0.9467578
95.16933 80.02955 432.6056 0.249985 -0.2038286 -0.9465523
95.73232 79.7104 432.7459 0.3342963 -0.2887781 -0.8971361
96.25547 79.64825 432.9299 0.5419384 -0.2060401 -0.81477
96.62988 79.86884 433.2441 0.6505316 -0.2102045 -0.7298101
97.07468 80.16173 433.7484 0.712856 -0.1206964 -0.6908464
97.51952 80.14345 433.9981 0.7434323 -0.137888 -0.6544425
98.00623 80.25092 434.3538 0.7932383 -0.06584439 -0.6053408
98.42188 80.47737 434.7734 0.8444191 -0.04809679 -0.5335195
98.49252 82.05807 436.0061 0.9060432 0.07187115 -0.4170374
98.67238 83.06759 436.9295 0.9231474 0.04458755 -0.3818518
99.20309 82.89604 437.0958 0.9200253 0.05186076 -0.3884117
87.85812 126.0617 464.8059 0.7439597 -0.5947203 0.3046829
88.14313 127.078 465.7822 -0.03795962 -0.9567454 0.2884393
88.66804 127.0023 466.0781 0.1226267 -0.8996651 0.4190051
89.29148 126.9648 466.1902 0.08001967 -0.9254791 0.3702503
89.73299 127.1276 466.668 0.2185784 -0.8407558 0.4953314
89.99928 128.1918 467.8048 0.1861744 -0.8044074 0.5641521
90.43204 128.5141 468.2088 0.3415635 -0.6902152 0.6379164
90.58593 129.9557 469.4319 0.412255 -0.6879937 0.5972525
90.87086 130.9194 470.3473 0.5370885 -0.6099697 0.5826431
109.0352 158.4404 502.3462 0.8991573 0.3564204 0.2539298
109.9561 156.7578 501.5296 -0.6958528 -0.7072753 0.1247014
110.7541 155.6002 501.0816 -0.6777397 -0.7324346 0.06487093
111.3907 155.24 501.1427 -0.641962 -0.7633942 0.07151271
112.0297 154.941 501.2911 -0.484168 -0.863346 0.14218
112.5925 154.7011 501.3883 -0.3420997 -0.9023021 0.2623327
113.1987 154.3209 501.4839 -0.2996258 -0.8859966 0.3538846
113.8883 154.3108 501.5774 -0.2715493 -0.8748255 0.4011747
114.3373 154.4496 502.1814 -0.3384196 -0.8734257 0.3501424
114.9138 154.3369 502.4226 -0.512205 -0.815419 0.2696993
115.596 153.7061 502.3102 0.8662087 0.4994352 -0.01571091
116.7922 150.5078 500.46 -0.7467618 -0.2944115 -0.5963796
117.0852 151.6133 501.4928 -0.6186641 -0.5837271 -0.5258492
117.9014 150.0836 500.8539 -0.6364143 -0.6181616 -0.4613601
118.5087 150.2246 501.0277 -0.6876522 -0.6718156 -0.2753146
118.9345 149.8685 501.5389 -0.3615429 -0.9208934 -0.1457468
119.6385 150.1614 501.7799 -0.2560242 -0.9634922 0.07832223
120.3236 149.3106 501.51 0.043496 -0.9946254 0.09396013
120.8791 149.3594 501.9123 -0.108647 -0.9907008 0.08190168
121.4062 149.534 502.4866 0.004659231 -0.9900192 0.1408556
121.9361 149.5668 502.5116 -0.09466843 -0.9840674 0.1504962
122.3625 149.5829 503.1862 -0.02792978 -0.963268 0.2670853
123.0781 149.4259 502.7881 -0.02726905 -0.9717076 0.234607
123.4855 149.7711 503.7238 -0.09642957 -0.9740543 0.2047426
124.1309 149.6848 503.7536 0.04619674 -0.9799356 0.1938868
124.6208 149.6871 504.3702 -0.04406637 -0.990059 0.1335715
125.1879 149.7367 504.5434 -0.03578436 -0.9823145 0.1837868
125.7045 149.7286 504.9482 -0.04354357 -0.9755313 0.2155054
126.2824 149.7693 505.1499 0.01272608 -0.9727673 0.2314341
126.8057 149.7998 505.5467 0.07553624 -0.9247327 0.3730463
127.152 150.9279 506.6288 0.1422246 -0.8389286 0.5253293
127.6779 151.0381 507.0191 0.1175271 -0.8811596 0.4579794
128.1644 151.4083 507.5744 0.3559557 -0.8789514 0.3173955
128.6003 152.023 508.3161 0.3033271 -0.9480972 0.09541618
129.1426 152.113 508.6835 0.07401118 -0.9972524 0.003147485
129.6712 152.0301 509.0252 -0.07427873 -0.9943753 -0.07550086
130.2417 152.0231 509.2748 -0.0606414 -0.9979039 -0.02258848
130.8144 151.9742 509.4926 0.1032963 -0.9945142 0.01647715
131.3631 151.942 509.6619 0.07104911 -0.9970684 -0.02840296
131.8838 152.0092 510.0735 0.01117473 -0.9975395 0.06920962
132.456 152.0358 510.4384 -0.0537574 -0.9908066 0.1241464
132.9734 152.0511 510.8334 -0.1255036 -0.9773806 0.1702236
133.5526 151.9301 511.0263 0.007242176 -0.961541 0.2745656
134.0003 152.4562 511.7513 0.001006227 -0.9665501 0.256476
134.5832 152.4114 511.94 0.03125026 -0.9675248 0.2508372
135.0952 152.5263 512.3065 0.02592469 -0.973581 0.2268654
135.6092 152.634 512.8881 0.06668445 -0.9647904 0.2544258
136.1558 152.7506 513.0424 0.01054436 -0.964969 0.2621516
136.6803 152.9269 513.6263 -0.08173786 -0.9683061 0.2360132
137.112 152.9061 514.005 -0.3233064 -0.9224182 0.2112286
137.8577 152.3954 513.8094 -0.4599898 -0.8473443 0.2653618
138.5787 151.9167 513.5755 -0.3704224 -0.8977972 0.2382174
139.0476 151.8031 514.0015 -0.08859124 -0.9554176 0.2816535
139.5742 151.9059 514.3627 -0.03109458 -0.9619337 0.2715078
140.0527 152.1023 514.71 0.001651619 -0.9741604 0.2258511
86.78979 88.03629 433.3747 -0.8459831 -0.2566248 -0.4673931
87.69051 86.66068 432.8094 -0.6834009 -0.2811681 -0.6737267
88.4688 85.70501 432.4913 -0.6556646 -0.170209 -0.7356173
89.44648 84.32529 431.8849 -0.5297823 -0.2091796 -0.8219334
89.89005 84.16309 432.0883 -0.434984 -0.2428994 -0.8670574
90.74984 83.03574 431.6245 -0.2407629 -0.1816254 -0.9534386
91.51562 82.21707 431.5117 -0.1189646 -0.1843649 -0.9756316
91.95607 82.09479 431.5819 -0.05083141 -0.1952901 -0.9794274
92.60613 81.76042 431.8351 -0.06748414 -0.1193497 -0.9905561
93.05911 81.72369 431.968 0.01801658 -0.1017977 -0.994642
93.55336 81.67172 432.1883 0.1939706 -0.141557 -0.9707404
94.01456 81.75157 432.5079 0.1774584 -0.1200235 -0.976782
94.54415 81.60114 432.6877 0.2598978 -0.1509409 -0.9537661
95.25974 80.83354 432.4366 0.3106143 -0.1277492 -0.9419124
95.74696 80.70053 432.705 0.4021305 -0.1645835 -0.9006681
96.23649 80.7267 432.966 0.6471875 -0.1428301 -0.7488309
96.64584 80.77108 433.3201 0.7173761 -0.09808408 -0.6897472
97.07204 81.19523 433.8025 0.7366542 -0.07417303 -0.6721896
97.49555 81.80586 434.3693 0.7879383 -0.005284134 -0.6157315
97.70834 82.10995 434.9042 0.860005 0.02788251 -0.5095233
98.29295 82.60464 435.4537 0.9185984 -0.02762009 -0.3942257
98.62569 82.66694 435.8048 0.9221232 0.01875448 -0.3864416
98.84301 83.51707 436.6406 0.9271374 0.06150706 -0.3696393
87.86605 125.4031 463.4326 0.8810987 -0.2044607 0.4264516
88.1445 126.4129 464.4017 0.3726356 -0.8820344 0.2883715
88.68796 126.3447 464.5747 0.1765929 -0.9517924 0.2508112
89.19661 126.3783 464.9539 0.1902105 -0.9443674 0.2683099
89.65374 126.6522 465.3969 0.09124974 -0.9586803 0.2694544
90.11737 126.92 465.8328 0.1677793 -0.950014 0.2632934
90.54276 127.3239 466.4665 0.2217885 -0.8624679 0.4549274
90.81075 128.1602 467.4152 0.3195211 -0.721279 0.614543
91.42281 128.0357 467.5211 0.2807209 -0.7260329 0.6277516
91.45149 129.9514 469.0486 0.3971644 -0.6560454 0.641767
91.54554 131.6371 470.4298 0.5186342 -0.5344799 0.6673453
109.7499 156.5789 500.3752 -0.6975215 -0.7133618 0.06766471
110.4631 155.9837 500.2775 -0.6990641 -0.7100846 0.08419742
111.0741 155.5918 500.3479 -0.6595007 -0.7429298 0.1145167
111.8158 154.7059 500.0688 -0.6116773 -0.7721388 0.1721991
112.5011 154.0826 499.9655 -0.4465438 -0.8428419 0.3003599
113.1306 153.7181 500.0367 -0.4051165 -0.8422161 0.3557424
113.5491 154.3958 500.7979 -0.3650316 -0.87608 0.315017
114.2856 153.5113 500.5158 -0.3332498 -0.8580056 0.3908593
114.9133 153.1437 500.5835 -0.3893381 -0.8882242 0.2438719
115.3874 153.5563 501.1651 -0.4444714 -0.8481401 0.2882767
115.962 153.4432 501.4054 -0.7477555 -0.6638715 0.01167623
116.7451 152.3015 500.9447 -0.7630202 -0.5360418 -0.3611916
117.3242 151.8761 500.9751 -0.6459372 -0.6274172 -0.434871
118.2765 150.7132 500.4993 -0.6452606 -0.5347856 -0.5455667
118.921 149.6631 500.0908 -0.5767651 -0.6240217 -0.527199
119.5655 149.4598 500.135 -0.4536336 -0.8540912 -0.2544498
120.0649 149.3465 500.5528 -0.4522112 -0.888204 -0.08123166
120.6297 149.3095 500.7899 -0.2661063 -0.9520079 0.1512228
121.193 149.3144 500.9836 -0.115423 -0.9650847 0.2351361
121.6575 149.4121 501.6204 -0.04582829 -0.9793924 0.1966982
122.3124 149.2392 501.6376 -0.09522764 -0.9841833 0.1493816
122.8631 149.0833 501.8694 -0.1243773 -0.9744364 0.1870932
123.4016 149.1498 502.0729 0.01473662 -0.9736542 0.2275527
123.8849 149.4738 502.8524 0.02046392 -0.9761202 0.2162647
124.3496 149.5148 503.2033 0.04931298 -0.9813015 0.1860519
125.0054 149.5316 503.2689 -0.06335464 -0.9872782 0.1458347
125.5128 149.564 503.6536 -0.03217083 -0.9887697 0.1459431
126.0619 149.6113 504.0354 -0.01651839 -0.9902235 0.1385084
126.5842 149.6438 504.4433 0.02630851 -0.9862055 0.1634213
127.1099 149.753 504.8357 0.05093851 -0.9804501 0.1900603
127.6384 149.8825 505.2156 0.190779 -0.894477 0.404369
128.1493 150.0858 505.5763 0.2380843 -0.8504284 0.4691346
128.5529 150.904 506.5002 0.4074214 -0.7143673 0.5689352
128.7227 153.0474 508.2875 0.2627876 -0.9607044 -0.08938491
129.3479 152.306 508.1327 0.02467742 -0.9978684 -0.06041332
130.0279 152.0618 508.1652 -0.1695418 -0.9855213 -0.001776526
130.5373 152.0172 508.5615 -0.02651682 -0.9995876 0.01101628
131.0445 152.0245 508.9193 0.1462035 -0.9892538 -0.001144356
131.6745 152.1499 509.2729 0.09134231 -0.9950907 -0.03809424
132.1315 152.2102 509.5857 0.005505322 -0.9994976 -0.03121405
132.8361 151.9337 509.5585 -0.1306366 -0.9914005 -0.007683672
133.3216 151.8815 509.9174 -0.2490969 -0.9683256 0.01721004
133.8353 151.8472 510.3122 -0.04154221 -0.9813376 0.1877517
134.3992 151.932 510.4608 0.01290464 -0.9658786 0.2586736
134.9091 152.1248 511.0462 0.03241218 -0.9602388 0.2772922
135.4449 152.223 511.4113 0.03815007 -0.9603173 0.2762883
135.9633 152.3781 511.7697 -0.04820911 -0.9697251 0.2393932
136.4656 152.5078 512.372 -0.03960599 -0.9580361 0.2838982
137.0427 152.4866 512.5219 -0.2989585 -0.9127717 0.2783374
137.6143 152.3174 512.7155 -0.4523619 -0.8509912 0.2668006
138.3062 151.3906 512.3755 -0.2858098 -0.9266434 0.2442227
138.8238 151.548 512.726 -0.1445183 -0.9647753 0.2198251
139.3378 151.682 513.3029 -0.03306426 -0.9688439 0.2454552
139.9052 151.7121 513.4504 0.06161713 -0.9761059 0.2083763
140.3627 152.2231 514.179 0.003578721 -0.9628304 0.2700827
85.93757 90.26537 433.8587 -0.7697724 -0.4803389 -0.4203866
86.97333 88.47861 433.0271 -0.7303731 -0.2133728 -0.648866
87.87348 87.10136 432.463 -0.6707768 -0.261786 -0.6939211
88.65136 86.14459 432.1459 -0.493851 -0.2086347 -0.8441462
89.60954 84.43729 431.369 -0.4957261 -0.1987616 -0.8454285
90.06978 84.63496 431.7745 -0.4204679 -0.1954209 -0.8860121
90.88164 83.64532 431.4097 -0.2686562 -0.1977212 -0.9427249
91.35452 83.65066 431.5606 -0.2334776 -0.168959 -0.9575704
91.96192 83.18563 431.7262 0.05496127 -0.1813011 -0.9818906
92.66325 82.43936 431.5129 0.04149502 -0.1584004 -0.9865026
93.22181 82.14553 431.6426 0.07251184 -0.2358943 -0.9690697
93.71974 82.06085 431.8645 0.201999 -0.119685 -0.9720452
94.29241 81.99255 432.1112 0.1756383 -0.1185541 -0.9772902
94.78365 81.84819 432.2589 0.2277164 -0.1470301 -0.9625629
95.36755 81.5225 432.4383 0.3252999 -0.1273248 -0.9369997
95.69988 81.98099 432.8019 0.4854676 -0.1151361 -0.86664
96.1083 82.26022 433.3952 0.6782659 -0.1063633 -0.7270777
96.55791 82.37689 433.6616 0.7322537 -0.06924219 -0.6775028
97.08195 82.25214 433.8722 0.7497168 -0.08195517 -0.6566643
97.52398 82.29276 434.1616 0.8095579 -0.09964433 -0.5785214
97.89311 82.52628 434.5832 0.8568094 -0.1290792 -0.4992157
98.25793 82.92933 435.1249 0.9253951 -0.05573848 -0.3748829
98.49375 84.12284 436.1313 0.9378833 0.03873156 -0.3447821
98.69962 85.14662 437.0489 0.9247186 -0.04115805 -0.3784196
87.66911 127.313 463.973 0.9511292 0.3022515 -0.06322405
88.62775 125.781 463.3503 0.2396679 -0.9284438 0.2838155
88.93517 126.5756 464.119 0.1238112 -0.959453 0.2532208
89.47224 126.5919 464.4192 0.1230455 -0.9613732 0.2462141
89.99079 126.6372 464.7328 0.1064694 -0.9643298 0.2423473
90.46024 126.852 465.1897 0.1608556 -0.9423088 0.2935634
90.9277 127.1126 465.6292 0.2214304 -0.9087851 0.353664
91.35535 127.5107 466.2657 0.2892286 -0.844169 0.4513597
91.76847 127.8757 466.6696 0.3415486 -0.8217213 0.4562
91.90125 129.468 468.0662 0.34801 -0.6582037 0.6675754
92.25173 130.1861 468.8206 0.2166325 -0.6469543 0.731109
93.389 129.9185 469.2615 -0.2889885 0.003684779 -0.9573254
110.1278 156.3074 499.4645 -0.7095768 -0.7027359 0.05160362
110.9278 155.1631 499.0138 -0.7398736 -0.6555295 0.151222
111.6691 154.2825 498.7393 0.6910868 0.6562146 -0.3029544
112.4077 153.4043 498.4651 -0.5366836 -0.7630071 0.3602649
112.8725 153.8173 499.0616 -0.4278247 -0.7968563 0.4265982
113.5545 153.1961 498.9596 -0.3758534 -0.8355644 0.4007071
114.1278 153.0896 499.2049 -0.3916147 -0.8449082 0.3643732
114.7068 152.9908 499.4391 -0.3043514 -0.8782268 0.3689011
115.2799 152.8815 499.6821 -0.2388524 -0.8855 0.3985464
115.8528 152.7709 499.9239 -0.3127347 -0.878821 0.3603755
116.327 153.1809 500.5032 -0.5355936 -0.8396229 0.09040308
117.0022 152.5517 500.3923 -0.6225116 -0.781199 -0.04698483
117.7216 151.974 500.3112 -0.7003896 -0.5946938 -0.3947071
118.4048 151.0467 499.9999 -0.5400809 -0.6501272 -0.5344597
119.1353 150.2012 499.7955 -0.628526 -0.6034589 -0.4907061
119.8469 149.2926 499.4333 -0.6611027 -0.6130575 -0.4325548
120.3617 149.3064 499.8486 -0.5974004 -0.7518958 -0.2788648
121.1086 148.3585 499.4193 -0.3037197 -0.9524046 0.02607202
121.6712 148.3836 499.7555 -0.2844113 -0.9571596 0.05436501
121.9917 149.1445 500.7393 -0.06954845 -0.9499711 0.3044962
122.674 149.1382 500.7532 -0.04281898 -0.9715406 0.2329705
123.1747 149.0555 501.1396 -0.03408084 -0.9795107 0.1984876
123.703 149.1223 501.5496 0.09925295 -0.9783645 0.1815257
124.2195 149.2987 501.9467 0.08599402 -0.9801415 0.1786831
124.7342 149.4157 502.3311 0.1122032 -0.9772031 0.1802349
125.2764 149.4643 502.7239 0.006120474 -0.9919711 0.1263161
125.7848 149.4975 503.1093 0.003012783 -0.9936978 0.1120521
126.4112 149.505 503.1357 -0.01444071 -0.9932197 0.1153517
126.9149 149.5216 503.5326 -0.004195609 -0.9920937 0.1254286
127.4439 149.6353 503.926 0.03715479 -0.9813631 0.1885364
127.9735 149.711 504.3064 0.1467137 -0.9483789 0.2811626
128.4945 149.8177 504.6909 0.1756473 -0.9282407 0.3278984
128.7917 150.3128 505.1323 0.2917706 -0.837894 0.4613064
129.1418 152.5695 507.2091 0.1730397 -0.9127646 0.3700243
129.846 151.9907 507.0686 0.001003748 -0.9235922 0.3833752
130.35 151.7765 507.2712 -0.2413867 -0.9542297 0.1765735
130.8766 151.845 507.6558 -0.06349527 -0.9801692 0.1877142
131.4003 151.9849 508.0313 0.1548418 -0.9634649 0.2185388
131.9014 152.1429 508.3981 0.1065593 -0.9871513 0.1190686
132.3355 152.9142 509.3235 -0.01570633 -0.9972202 -0.07283624
133.0443 152.0175 509.0049 -0.2137133 -0.9763471 -0.03275719
133.7179 151.6947 509.0249 -0.2981333 -0.954495 -0.007479583
134.183 151.7048 509.3901 -0.06249303 -0.9862402 0.1530516
134.6992 151.8263 509.7654 0.03654113 -0.9730663 0.2276112
135.2226 151.9739 510.3567 -0.0237349 -0.9581894 0.2851487
135.7781 152.0416 510.4913 -0.1044205 -0.9470536 0.303621
136.2766 152.2433 511.0799 -0.1253719 -0.9286157 0.3492201
136.6959 152.1586 511.3874 -0.2218122 -0.9197996 0.3236787
137.4527 151.7343 511.2679 -0.3993424 -0.8462268 0.3527404
138.1045 151.4185 511.2538 -0.3428632 -0.8898948 0.300885
138.5921 151.399 511.6547 -0.1865357 -0.9416937 0.280031
139.1322 151.4319 512.0217 -0.04805772 -0.9701366 0.2377505
139.6597 151.5345 512.3867 0.03988516 -0.9804057 0.1929083
140.2219 151.5648 512.5533 0.0526725 -0.9732835 0.2234833
140.7248 151.7254 513.1019 0.03785557 -0.9734439 0.2257739
86.24661 90.29921 433.2541 -0.7519987 -0.1813051 -0.63374
87.02876 89.31932 432.9416 -0.7154496 -0.1975224 -0.6701618
88.0565 87.54212 432.1165 -0.6366721 -0.2245164 -0.737727
88.83685 86.58839 431.8258 -0.5098999 -0.2761254 -0.8147128
89.30457 86.31673 431.8395 -0.4809263 -0.2627296 -0.8364705
90.25476 85.06944 431.4285 -0.3016383 -0.1163948 -0.946291
90.99467 84.16554 431.1693 -0.1733755 -0.238668 -0.9554991
91.50474 84.11549 431.3558 -0.1779377 -0.2633668 -0.9481435
92.00904 83.94228 431.4759 0.03404723 -0.1865521 -0.981855
92.61891 83.65137 431.6279 0.06883077 -0.1240566 -0.9898849
93.19947 83.31132 431.7206 0.2005132 -0.1453048 -0.9688556
93.87596 82.5841 431.6044 0.2625423 -0.1584311 -0.9518251
94.37019 82.60637 431.8341 0.1689 -0.1458329 -0.9747849
94.85835 82.64848 432.0416 0.1849242 -0.1380547 -0.9730077
95.44188 82.14839 432.2712 0.3227831 -0.1539497 -0.9338685
95.99047 82.00651 432.259 0.4871903 -0.1115876 -0.8661373
96.464 82.06172 432.5022 0.6782659 -0.1063633 -0.7270777
96.8586 82.28833 433.1113 0.7322537 -0.06924219 -0.6775028
97.31149 82.50797 433.3806 0.7497168 -0.08195517 -0.6566643
97.60953 82.75605 433.8617 0.8025386 -0.1165958 -0.5850959
97.98251 83.30312 434.4898 0.8812869 -0.02052564 -0.4721356
98.19971 84.53018 435.4944 0.9338405 0.03356698 -0.3561113
98.5435 85.46488 436.3705 0.9338925 -0.07436085 -0.3497358
98.87026 85.74982 436.7963 0.9205669 -0.0880431 -0.3805324
88.3905 126.2487 462.6309 0.0293099 -0.9631722 0.2672831
89.00208 126.0291 462.6094 0.2887037 -0.8887637 0.3560187
89.34974 126.2067 463.1333 0.2044474 -0.9426482 0.2638475
89.69135 126.6298 463.9051 0.1571821 -0.967596 0.1976153
90.42512 126.4902 463.9177 0.0528453 -0.9546282 0.293074
90.91525 126.3803 464.2111 0.03699399 -0.9515204 0.3053527
91.26691 127.0206 464.9794 0.1857362 -0.9161158 0.355294
91.78319 127.1185 465.2623 0.2779154 -0.8509983 0.4456064
92.2011 127.4367 465.6343 0.3333098 -0.8099458 0.4825891
92.55238 128.251 466.6369 0.373367 -0.7287918 0.5739858
92.92324 128.7812 467.2091 0.3979321 -0.7377191 0.5453627
93.05663 130.3882 468.6375 0.3808123 -0.6356661 0.6714987
93.83932 129.4463 468.2718 0.3984397 -0.7304109 0.5547483
109.8722 156.3974 498.4787 -0.7506817 -0.6538544 0.09461188
110.5604 155.7758 498.3813 -0.769293 -0.6273075 0.1211351
111.5176 153.8493 497.4222 -0.7408951 -0.6500871 0.1687045
112.2549 152.975 497.1522 -0.7020524 -0.6999681 0.1310235
112.8813 152.6166 497.2283 -0.5798706 -0.7540263 0.3085358
113.6144 151.7448 496.9579 -0.5111777 -0.7859206 0.3478882
114.084 152.1626 497.5402 -0.393815 -0.8093224 0.4357831
114.7083 151.8015 497.613 -0.2680583 -0.8631665 0.427888
115.1734 152.207 498.2034 -0.3447682 -0.8197606 0.4573044
115.9081 151.6835 498.0791 -0.2583756 -0.8356897 0.4846285
116.4261 151.4869 498.3327 -0.05633327 -0.8703533 0.4891946
116.841 152.1424 499.0928 -0.2266563 -0.9289812 0.2926103
117.4206 152.1146 499.3137 -0.4804572 -0.8722649 0.09118531
117.8404 151.9561 499.7314 -0.5633373 -0.8050481 -0.1858728
118.5284 151.466 499.5888 -0.6278712 -0.6919566 -0.3563339
119.2201 150.867 499.4518 -0.6343183 -0.5741417 -0.5176888
119.9032 150.5255 499.5511 -0.6139466 -0.6206053 -0.487769
120.9014 149.2706 499.0742 -0.5900866 -0.6285219 -0.506713
121.3404 148.8274 499.0264 -0.391664 -0.8753419 -0.2835065
121.8886 148.7284 499.262 -0.3177668 -0.9360765 -0.150947
122.4053 148.5711 499.5664 -0.0806948 -0.9960101 0.03810897
123.0644 148.6293 499.688 -0.05650893 -0.9856877 0.1588279
123.4733 149.0051 500.427 0.04213321 -0.9817771 0.185306
124.0406 149.0609 500.6371 0.1364947 -0.9720284 0.1911276
124.5529 149.1311 501.0372 0.07006361 -0.9777248 0.1978516
125.082 149.2507 501.4254 0.07743929 -0.9752208 0.2072375
125.5903 149.3794 501.8159 0.001193319 -0.9844725 0.1755353
126.1691 149.2343 502.0987 0.005050433 -0.9905115 0.1373363
126.666 149.4711 502.4463 -0.01746807 -0.9884093 0.1508038
127.2175 149.5133 502.9991 -0.04210356 -0.9917272 0.1212613
127.7458 149.5316 503.2199 0.0180982 -0.9835425 0.1797678
128.2735 149.585 503.6025 0.03916328 -0.9764081 0.2123519
128.8413 149.643 503.7981 0.1137639 -0.9479482 0.2974086
129.146 150.9069 505.0596 0.364803 -0.7234368 0.5861381
129.4527 152.286 506.3115 -0.02999827 -0.8971604 0.4406849
130.1573 151.3808 505.9984 0.006278662 -0.8163421 0.5775345
130.6831 151.4883 506.3834 -0.2037845 -0.9382967 0.279412
131.2088 151.5559 506.768 0.01432485 -0.9449625 0.326865
131.7572 151.6084 506.9248 0.1341124 -0.9421275 0.3072613
132.2398 152.0292 507.6997 0.06233699 -0.9718574 0.2271725
132.7443 152.1563 508.2347 -0.1948407 -0.9700332 0.1451642
133.2587 152.1853 508.413 -0.3295416 -0.9416813 0.06810784
133.9841 151.3404 508.1298 -0.4305552 -0.8724027 0.2313774
134.5067 151.4994 508.4814 -0.2560648 -0.9120963 0.3201734
135.006 151.6435 509.0853 0.01802781 -0.9702553 0.241412
135.5729 151.6254 509.2508 -0.1748252 -0.9185327 0.3545893
136.0655 151.6153 509.6493 -0.2016642 -0.9133247 0.3537931
136.7174 151.308 509.6376 -0.3266253 -0.85654 0.3995685
137.2864 151.1434 509.8344 -0.3329321 -0.8743958 0.3529701
137.9227 150.9383 509.7987 -0.1323012 -0.9494689 0.2846144
138.3872 150.9944 510.4122 -0.1174656 -0.9528166 0.2798968
138.9568 151.0451 510.5487 -0.02765581 -0.9651953 0.2600636
139.457 151.18 511.1399 0.05441615 -0.9708959 0.2332378
139.9753 151.3605 511.4708 0.058776 -0.9696514 0.2373217
140.4841 151.4797 512.0334 0.02352922 -0.9804702 0.1952551
141.0472 151.4873 512.2038 0.0308144 -0.9808938 0.1920879
87.27422 89.55798 432.4666 -0.6933572 -0.2107844 -0.6890762
88.11289 88.37897 432.0303 -0.6430367 -0.1620776 -0.7484882
89.07852 87.06519 431.583 -0.4885007 -0.2180734 -0.8448735
89.71468 86.52727 431.4943 -0.4134562 -0.2587311 -0.8729903
90.25815 86.10773 431.4588 -0.3252196 -0.1254707 -0.9372776
91.16221 84.73213 430.8559 -0.1363987 -0.2186608 -0.9662209
91.67531 84.60585 431.0817 -0.1087777 -0.2008771 -0.9735584
92.2793 84.32574 431.2681 0.02585702 -0.2343346 -0.9718121
92.7923 84.13564 431.3766 0.0467127 -0.2059428 -0.9774484
93.30148 84.18346 431.6456 0.1959156 -0.2029399 -0.9593917
93.77693 84.11907 431.8299 0.1933879 -0.1910916 -0.9623331
94.3283 83.8345 431.964 0.221132 -0.1431112 -0.9646864
94.91341 83.47733 432.0034 0.2883343 -0.09627562 -0.9526774
95.4705 83.14346 432.1967 0.4038423 -0.1196681 -0.906968
95.97095 83.16492 432.3884 0.6234355 -0.1213888 -0.7723942
96.38684 83.3977 432.8128 0.7343602 -0.07302734 -0.6748199
96.80824 83.63837 433.2286 0.7163302 -0.06723668 -0.6945145
97.22991 84.06982 433.7118 0.7413716 -0.06023567 -0.6683859
97.60107 84.09151 434.1099 0.8306453 -0.02787298 -0.5561038
97.94302 84.73087 434.7444 0.9185058 0.01404175 -0.395158
98.21588 85.55624 435.5296 0.9415254 -0.03436333 -0.3351852
98.57186 85.71834 435.8246 0.9264572 -0.04038184 -0.3742278
99.05408 86.16487 436.5038 0.9396896 -0.00708665 -0.3419549
93.44362 108.4844 450.7768 -0.6915728 -1.526198 -0.4386865
89.08012 126.0151 462.3757 0.2003768 -0.9340543 0.2956207
89.7653 125.8769 462.3413 0.0173958 -0.9740967 0.2254617
90.11269 126.3649 463.194 -0.0760788 -0.9502515 0.30205
90.71491 126.4285 463.2462 -0.144198 -0.916627 0.3728294
91.42877 125.7081 463.0895 -0.08391685 -0.9290438 0.3603269
91.76517 126.3801 463.8499 0.1236324 -0.881977 0.4547873
92.18649 126.8068 464.4703 0.1930997 -0.834372 0.516271
92.64142 127.0916 464.8973 0.2129491 -0.8231613 0.5263631
92.97782 127.9616 465.8643 0.3098333 -0.7991643 0.5151114
93.27689 128.7535 466.5464 0.381867 -0.7677296 0.5145568
93.70962 129.3251 467.3137 0.3139363 -0.7011865 0.6401418
93.78747 130.8906 468.5176 0.5472018 -0.5420275 0.6377903
109.9492 154.912 496.4566 0.7346391 0.6181773 -0.279575
110.4113 155.3356 497.059 0.762377 0.5904201 -0.2649252
111.2073 154.1996 496.6172 0.7453372 0.6307136 -0.2160387
111.8901 153.584 496.5227 -0.698043 -0.6931052 0.1798362
112.6798 152.4547 496.0826 -0.6258214 -0.7287822 0.2778923
113.2674 152.0487 496.1577 -0.5527108 -0.7833442 0.2843986
113.9817 151.4843 496.0638 -0.456085 -0.8406789 0.2919679
114.679 150.9262 496.1086 -0.3408448 -0.8442987 0.4135028
115.1897 150.8422 496.268 -0.2467845 -0.8567696 0.452817
115.6886 150.9682 496.6544 -0.2477988 -0.8939599 0.3734049
116.1816 151.1873 497.2716 -0.3041697 -0.8691709 0.389901
116.8404 150.9738 497.2674 0.03028194 -0.836764 0.5467257
117.3579 151.1184 497.6806 -0.006516097 -0.8533877 0.5212359
117.7279 152.0346 498.6003 -0.1620486 -0.9531953 0.2552623
118.3835 151.754 498.6786 -0.4910742 -0.869985 0.04440713
118.8363 151.4326 498.8886 -0.5458269 -0.8301539 -0.1136556
119.6192 150.963 498.8035 -0.62296 -0.7173989 -0.3118646
120.3085 150.049 498.5141 -0.544874 -0.6209264 -0.563527
120.7498 149.7849 498.5648 -0.5257632 -0.6090992 -0.5937771
121.5974 149.1926 498.6223 -0.3712238 -0.6746561 -0.6379907
122.1498 148.8485 498.6721 -0.2452566 -0.7464873 -0.6185514
122.8183 148.7568 498.7759 -0.1445602 -0.9410574 -0.3057993
123.304 148.5991 499.1268 -0.05873685 -0.9968681 -0.05295078
123.8424 148.6911 499.3719 0.006991664 -0.9927335 0.1201301
124.3618 148.8879 499.9532 0.0484661 -0.9728406 0.226345
124.8593 149.0835 500.3318 -0.01413555 -0.9753674 0.220133
125.3587 149.0426 500.7351 0.03734176 -0.9671862 0.2513092
125.9836 149.0665 500.6575 -0.08635689 -0.956055 0.2801803
126.3574 149.8334 501.6707 -0.03429947 -0.9835391 0.1774099
127.0471 149.4447 501.8564 -0.03273743 -0.975981 0.2153817
127.5766 149.249 501.9206 -0.04310158 -0.9834597 0.1759239
128.0874 149.2992 502.3297 0.004755958 -0.9871001 0.1600339
128.6475 149.3407 502.5142 -0.03367671 -0.9846326 0.1713609
129.1552 149.4592 503.1163 0.04588167 -0.9771027 0.2077623
129.6656 149.6495 503.4747 0.05753717 -0.9673852 0.2466884
130.1879 149.7598 503.8614 0.07844483 -0.9061532 0.4156112
130.7111 149.8663 504.247 -0.1067052 -0.8887988 0.4457024
131.1092 150.7317 505.1423 0.00437084 -0.8148658 0.579633
131.5526 151.346 505.8647 0.04045226 -0.9277128 0.3710965
132.0479 151.5211 506.2442 0.01900027 -0.8815559 0.4716969
132.5697 151.8014 506.7973 -0.03016246 -0.9195089 0.39191
133.0509 152.1582 507.3517 -0.2392752 -0.9312155 0.2749275
133.7907 150.9966 506.8576 -0.5952493 -0.7329195 0.3294041
134.54 150.2084 506.5122 -0.4186359 -0.8850053 0.2037392
135.0104 150.1868 506.9156 -0.2495593 -0.9131118 0.3224078
135.5419 150.2804 507.2832 -0.113347 -0.9169049 0.3826721
136.068 150.3781 507.6567 0.01611495 -0.9621331 0.2721031
136.6 150.475 508.0206 -0.06551316 -0.9226075 0.3801357
137.127 150.56 508.3944 -0.09689138 -0.9423759 0.320218
137.654 150.65 508.7657 -0.06179256 -0.9672697 0.2461114
138.1895 150.6931 509.1353 -0.07518648 -0.9740077 0.2136725
138.7161 150.8064 509.5018 -0.03444376 -0.9726802 0.2295796
139.237 150.8208 509.8654 0.03412953 -0.9708534 0.2372319
139.7942 150.8987 510.0175 0.09748301 -0.9677107 0.2324499
140.2973 151.0999 510.5827 0.05213888 -0.9679914 0.2455082
140.8046 151.3204 511.1479 0.01489359 -0.9756836 0.2186765
141.3686 151.2349 511.3115 -0.09926224 -0.9782342 0.1822215
86.48585 91.58964 432.8192 -0.6693759 -0.1538864 -0.7268114
87.51475 89.78687 432.0002 -0.6532447 -0.2098664 -0.7274802
88.29615 88.82033 431.6833 -0.5786827 -0.1532281 -0.8010289
89.07396 87.85783 431.3677 -0.474685 -0.1918796 -0.8589857
89.7886 87.10087 431.1793 -0.4145623 -0.2118834 -0.8850105
90.44052 86.54624 431.1141 -0.336108 -0.2197059 -0.9158388
91.03296 86.21745 431.2096 -0.22663 -0.1874132 -0.9557799
91.61831 85.84226 431.2625 -0.06916388 -0.1432544 -0.9872662
92.33166 85.0846 431.0909 0.0571618 -0.1311197 -0.9897171
92.94064 84.61984 431.1809 0.1019191 -0.2535156 -0.9619472
93.37295 84.54251 431.3308 0.2142104 -0.2146524 -0.9529104
93.91899 84.6196 431.5883 0.207019 -0.2537628 -0.9448532
94.36758 84.5752 431.6909 0.1898006 -0.2253748 -0.9556055
95.03024 84.13528 431.919 0.2814165 -0.14836 -0.9480475
95.45283 84.35425 432.2429 0.4633781 -0.1775328 -0.8681951
95.86906 84.58965 432.6681 0.650306 -0.1737069 -0.7395458
96.31212 84.7589 433.0907 0.7182882 -0.1451575 -0.6804346
96.88265 84.76929 433.2651 0.7260537 -0.1221177 -0.6767077
97.32254 84.85008 433.5949 0.7701724 -0.09023065 -0.6314213
97.69513 85.10473 434.09 0.8584163 -0.03710953 -0.5116097
97.95808 85.56597 434.6726 0.9150928 -0.01849346 -0.4028191
98.23154 86.59212 435.5651 0.9233713 0.005012972 -0.3838754
98.38165 87.82582 436.612 0.9239182 0.08087973 -0.373943
98.97076 87.45141 436.6545 0.9552457 0.06305462 -0.2890154
89.08881 125.4848 460.8337 -0.2431515 -0.960537 0.1350781
89.63004 125.7891 461.3467 0.07693767 -0.988726 0.1284585
90.20638 125.8496 461.5582 -0.07403903 -0.9793329 0.1882164
90.69212 125.6987 461.8307 -0.2158751 -0.9733551 0.07731488
91.20781 125.6366 462.1313 -0.1702729 -0.964213 0.2032254
91.78373 125.6066 462.2547 -0.01391999 -0.9785962 0.2053187
92.24543 125.779 462.6959 0.1471395 -0.9066163 0.3954703
92.70158 126.1215 463.3395 0.1840674 -0.8969665 0.4019581
93.14936 126.396 463.7733 0.1054219 -0.9075068 0.4065924
93.64414 126.5377 464.2 0.1527572 -0.8066733 0.5709144
93.78315 128.0371 465.4219 0.2750856 -0.7241772 0.6323727
94.30406 128.0955 465.7123 0.2066442 -0.732822 0.6482822
94.41891 129.6891 467.0775 0.3740613 -0.6821498 0.6282911
94.4614 131.6009 468.597 0.3619394 -0.4353175 0.8243169
110.1012 155.6835 496.2497 0.6721727 0.4852168 -0.5592391
111.058 153.7629 495.3025 -0.6559798 -0.7037162 0.2728993
111.9037 152.379 494.6954 0.7417845 0.6145273 -0.2685368
112.5279 152.0256 494.7761 -0.4970027 -0.807232 0.3183783
113.4201 150.3958 494.0012 -0.5450366 -0.7247345 0.4215387
114.094 149.7894 493.9102 -0.2987324 -0.8236851 0.481977
114.5605 150.2063 494.4894 -0.1742963 -0.8455398 0.5046613
115.2874 149.3428 494.2251 -0.2421514 -0.8028497 0.5447888
115.437 151.2853 495.8296 -0.2467845 -0.8567696 0.452817
116.1636 150.4142 495.5591 -0.3390101 -0.8120543 0.4750158
116.8862 149.5482 495.291 -0.4704265 -0.7349377 0.4884316
117.35 149.9473 495.8745 -0.003800711 -0.7932399 0.6088972
117.866 150.0918 496.2867 0.04238018 -0.8114288 0.5829127
118.0371 152.0309 497.8795 -0.1310407 -0.9188398 0.3722388
119.0487 150.8157 497.1832 -0.227727 -0.8541781 0.4674612
119.3275 151.0398 497.8403 -0.4940677 -0.8547257 0.1591882
119.7025 151.0827 498.4444 -0.4417129 -0.8968011 -0.02525051
120.3064 150.7426 498.2105 -0.5507379 -0.7469823 -0.3724314
121.2034 150.1124 498.1713 -0.3348219 -0.704528 -0.6257272
121.7629 149.7806 498.1755 -0.3604665 -0.7123657 -0.6021618
122.5553 149.1438 498.1829 -0.3552673 -0.7488601 -0.5594584
123.0395 148.8711 498.2206 -0.3374106 -0.7703611 -0.5410157
123.5978 148.7004 498.4337 -0.2514192 -0.9122459 -0.3234129
124.2822 148.1936 498.4567 -0.1657522 -0.9824567 -0.08546889
124.6723 148.786 499.0339 -0.01999925 -0.9888105 0.1478309
125.0985 148.8322 499.7013 -0.06237426 -0.9674187 0.2453784
125.9077 148.7262 499.4375 -0.08943718 -0.9551919 0.2821514
126.3126 148.7708 500.0802 -0.07917501 -0.9625969 0.2591107
126.7312 148.9336 500.7213 -0.01103688 -0.9558895 0.2935189
127.5195 148.7562 500.4207 0.04955858 -0.9630293 0.2647988
127.8899 148.9964 501.0391 -0.003628206 -0.9758525 0.2183999
128.407 149.218 501.4266 0.02273908 -0.9736854 0.2267589
128.923 149.2539 502.0173 -0.01773629 -0.9846423 0.1736802
129.4763 149.2883 502.2105 0.04979031 -0.9772058 0.2063727
130.0166 149.1381 502.3432 -0.01030042 -0.9660665 0.2580878
130.5287 149.585 502.9638 0.008864474 -0.977292 0.2117114
131.0427 149.5828 503.3678 -0.05613319 -0.9785003 0.1984594
131.6191 149.4778 503.5616 -0.05361599 -0.9862602 0.1562562
132.1603 149.4886 503.7374 -0.03251299 -0.9645816 0.2617733
132.6721 149.6943 504.3161 -0.01879495 -0.9418272 0.3355713
133.1104 150.2947 505.0436 -0.1457808 -0.796593 0.5866749
133.5134 151.1534 505.935 -0.445687 -0.7449233 0.4964396
134.2076 150.248 505.6197 -0.3594407 -0.8690445 0.3399471
134.8462 150.0012 505.6443 -0.2391919 -0.934621 0.2631931
135.3377 149.9841 506.0197 -0.05901839 -0.9806158 0.1868404
135.8714 150.0363 506.3941 -0.004205429 -0.976895 0.2136778
136.3967 150.1314 506.7679 0.02161844 -0.9698378 0.2427907
