ply
format ascii 1.0
element vertex 794
property float x
property float y
property float z
property float nx
property float ny
property float nz
end_header
3.747152 -4.677258 468.5506 -0.5556084 0.7564516 -0.34508
4.321758 -4.755168 467.7278 -0.619377 0.6585125 -0.4274733
11.35778 -4.549451 448.842 -0.2002269 0.9610366 -0.1905718
11.84844 -4.540529 448.0106 -0.08625492 0.9434239 -0.3201742
12.35947 -4.543742 447.9823 -0.1177112 0.9372044 -0.328317
12.8704 -4.546937 447.9529 -0.1657453 0.9207857 -0.3531035
13.36427 -4.508783 447.7108 -0.2636285 0.8964462 -0.3562081
13.87211 -4.530365 447.2942 -0.3020845 0.8801419 -0.3661899
14.37009 -4.528962 446.8639 -0.287388 0.8620351 -0.4174967
14.85566 -4.505859 446.4221 -0.3450184 0.8121655 -0.4704778
15.38858 -4.578034 445.8445 -0.3122716 0.8049808 -0.5044724
15.86689 -4.55665 445.6008 -0.2586784 0.8160891 -0.5168017
16.36309 -4.51263 445.5397 -0.2216313 0.8238291 -0.5217136
92.05338 -4.620852 457.3158 -0.9569939 0.1259222 -0.2613545
92.45365 -4.614472 455.9737 -0.8719599 0.1943344 -0.4493552
92.75149 -4.660637 455.3951 -0.8374113 0.1364789 -0.5292598
93.21348 -4.674927 454.9744 -0.8450241 0.1270836 -0.5194074
93.62578 -4.645779 454.5484 -0.8375958 0.1028738 -0.5365168
94.00486 -4.55874 454.2286 -0.7991841 0.1037272 -0.5920689
94.39175 -4.475929 453.9329 -0.6735176 0.07830197 -0.7350121
94.8767 -4.502449 453.5569 -0.6079233 0.01266524 -0.7938947
95.38552 -4.45491 453.346 -0.6004475 -0.07570738 -0.7960724
95.7567 -4.506215 453.2114 -0.5038624 -0.1960787 -0.8412347
96.22449 -4.548151 453.0409 -0.4726988 -0.1707923 -0.8645148
96.89716 -4.698107 452.8495 -0.4358006 -0.1036 -0.8940609
97.20273 -4.528594 452.6241 -0.3549383 -0.0901273 -0.9305353
97.76576 -4.481655 452.3823 -0.2253413 -0.1878092 -0.9560068
98.34821 -4.52691 452.3423 0.03296809 -0.1449415 -0.9888908
98.93996 -4.477483 452.4543 0.3024794 -0.09020577 -0.9488779
99.49112 -4.622344 452.9043 0.3076735 0.04559613 -0.9503989
100.0326 -4.415789 452.7413 0.4029338 0.01066949 -0.915167
100.3871 -4.647713 452.6134 0.5210034 0.05828482 -0.8515622
100.9917 -4.587959 452.8745 0.5289665 0.1604993 -0.8333272
101.5169 -4.642102 453.0976 0.5936671 0.1691994 -0.7867216
101.9605 -4.580144 453.1436 0.6481086 0.1756897 -0.7410049
102.6826 -4.617519 453.761 0.4658446 0.2819953 -0.8387296
103.5412 -4.452055 454.2663 0.5944389 0.3240782 -0.7359455
103.8387 -4.596274 453.8274 0.7308226 -0.04859406 -0.6808355
-218.6014 -5.505554 610.5189 0.2201234 -0.2540772 -0.9418017
-217.9817 -5.49345 610.7294 0.2375881 -0.2427206 -0.9405523
-217.3423 -5.455419 610.9047 0.3214237 -0.2437373 -0.9150294
-216.7301 -5.432374 611.1166 0.3764773 -0.2595814 -0.8893157
-216.1184 -5.509809 611.4522 0.3163573 -0.2408452 -0.9175575
-215.4878 -5.475348 611.6122 0.2620502 -0.2314031 -0.9369004
-214.8172 -5.482097 611.6843 0.2661543 -0.23344 -0.9352367
-214.2123 -5.458752 611.9258 0.319302 -0.2432756 -0.9158947
-213.6062 -5.506562 612.2807 0.3885776 -0.2460532 -0.8879557
-212.9759 -5.471699 612.4744 0.3610717 -0.2632771 -0.8946018
-212.3559 -5.450486 612.6724 0.2834053 -0.2679166 -0.920816
-211.7166 -5.538645 612.8826 0.2519317 -0.2560339 -0.9332615
-211.085 -5.50776 613.0391 0.2227407 -0.2138611 -0.9511309
-210.4147 -5.502478 613.1697 0.2674122 -0.1726837 -0.9479826
-209.777 -5.503764 613.3909 0.3290368 -0.1931069 -0.9243618
-209.1516 -5.524475 613.6539 0.3604242 -0.1953457 -0.9121044
-208.5351 -5.510624 613.8667 0.3583401 -0.1866475 -0.9147432
-207.9285 -5.481853 614.1211 0.3452233 -0.1900658 -0.9190733
-207.2896 -5.520633 614.3779 0.2964267 -0.2012388 -0.9336135
-206.6621 -5.508733 614.5991 0.2393863 -0.184541 -0.9532254
-205.9786 -5.515612 614.6367 0.3210085 -0.2164586 -0.9220082
-205.3808 -5.495352 614.8951 0.3521562 -0.2228941 -0.9090128
-204.764 -5.514879 615.2549 0.4059674 -0.2408303 -0.8815845
-204.1316 -5.484095 615.5043 0.2473756 -0.1957832 -0.9489332
-203.5185 -5.589441 615.5903 0.1598921 -0.216716 -0.9630518
-202.7439 -5.455367 615.7162 0.1870558 -0.2342145 -0.9540197
-202.1221 -5.566985 615.8321 0.3054842 -0.2138552 -0.9278714
-201.5212 -5.506049 616.0869 0.4734299 -0.2247329 -0.8516802
-200.9412 -5.52647 616.5251 0.4201072 -0.1956556 -0.8861314
-200.35 -5.570393 616.8384 0.3446403 -0.1746186 -0.922351
-199.6949 -5.556518 616.9829 0.2521866 -0.1604326 -0.9542868
-199.0089 -5.535607 617.0776 0.2392757 -0.1495685 -0.9593625
-198.3796 -5.507298 617.3076 0.2893788 -0.1977888 -0.9365573
-197.7263 -5.586712 617.5406 0.3757098 -0.2261 -0.8987329
-197.1151 -5.510125 617.7918 0.4145112 -0.230993 -0.8802401
-196.4826 -5.570398 618.103 0.3112714 -0.2041119 -0.9281424
-195.847 -5.542318 618.3215 0.2168459 -0.2098741 -0.9533786
-195.1354 -5.561278 618.2613 0.185756 -0.1915793 -0.9637386
-194.4975 -5.516721 618.4737 0.2862397 -0.213688 -0.9340258
-193.8584 -5.570957 618.7912 0.3861201 -0.2136724 -0.8973602
-193.263 -5.599574 619.149 0.3118466 -0.1998246 -0.928882
-192.6209 -5.568746 619.2495 0.309139 -0.1902493 -0.9317931
-191.9332 -5.557307 619.3901 0.2550911 -0.1631871 -0.953047
-191.3042 -5.603425 619.6987 0.3111732 -0.1928044 -0.9305899
-190.6582 -5.562739 619.8293 0.4024552 -0.2198107 -0.888658
-190.0326 -5.536005 620.0682 0.3418367 -0.2231454 -0.9128821
-189.3979 -5.570524 620.3881 0.3424748 -0.2378339 -0.9089258
-188.7408 -5.519288 620.5591 0.3374804 -0.2235413 -0.9144049
-188.0919 -5.587558 620.8286 0.2792991 -0.2419091 -0.929232
-187.5457 -5.634612 621.0851 0.3116114 -0.2539604 -0.9156432
-186.7168 -5.525356 621.1722 0.3093191 -0.2542211 -0.9163478
-186.1681 -5.556022 621.4238 0.3323505 -0.2484671 -0.9098392
-185.519 -5.609547 621.7155 0.3191036 -0.1920567 -0.9280555
-184.8608 -5.581966 621.9097 0.271805 -0.184248 -0.94455
-184.1887 -5.536662 622.0087 0.3458119 -0.1913527 -0.9185849
-183.5641 -5.587127 622.3101 0.3461367 -0.2292443 -0.9097453
-182.9509 -5.634275 622.6782 0.3632495 -0.2122123 -0.9072021
-182.3 -5.548127 622.8364 0.2657731 -0.2157447 -0.9395844
-181.6437 -5.637183 623.0569 0.223952 -0.215294 -0.9505229
-180.9666 -5.606678 623.1539 0.2665049 -0.2252474 -0.9371439
-180.3008 -5.561845 623.3333 0.3129056 -0.2232575 -0.9231718
-179.6253 -5.6147 623.5908 0.402228 -0.2810417 -0.8713371
-179.0278 -5.643757 623.9259 0.320244 -0.2419816 -0.9159087
-178.3711 -5.579863 624.1805 0.226646 -0.2024407 -0.9527063
-177.651 -5.582959 624.1697 0.09862722 -0.2041507 -0.9739584
-176.9349 -5.588407 624.1704 0.1823813 -0.2323513 -0.9553795
-176.3653 -5.559449 624.2719 0.3375886 -0.2632879 -0.9037219
-175.6864 -5.601775 624.8854 0.5853491 -0.2696602 -0.7646239
-175.1002 -5.633816 625.2873 0.5048133 -0.2238087 -0.8337106
-174.5439 -5.61187 625.765 0.3706125 -0.1959453 -0.9078832
-173.8243 -5.616217 625.7556 0.2287056 -0.2175553 -0.9488748
-173.1744 -5.661685 626.0098 0.2231927 -0.2392534 -0.9449565
-172.5005 -5.630145 626.1558 0.3274503 -0.2714421 -0.905039
-171.875 -5.662394 626.4972 0.2736832 -0.2650477 -0.9245795
-171.1764 -5.644159 626.4703 0.3089203 -0.2288066 -0.9231553
-170.503 -5.607099 626.6772 0.2896937 -0.2290627 -0.929305
-169.8847 -5.609198 626.9977 0.3885938 -0.2412897 -0.8892549
-169.1886 -5.650975 627.2712 0.27712 -0.2779735 -0.9197474
-168.5753 -5.680363 627.5764 0.3489743 -0.2827313 -0.8934652
-167.8938 -5.632835 627.7073 0.3831729 -0.2470024 -0.8900384
-167.2815 -5.641101 628.1087 0.3643945 -0.2308917 -0.9021672
-166.5978 -5.609519 628.2396 0.3960539 -0.2469439 -0.8843981
-165.9353 -5.641068 628.4669 0.2811618 -0.2953558 -0.9130789
-165.3045 -5.683372 628.7971 0.1665789 -0.2930732 -0.9414666
-164.6087 -5.678862 628.7656 -0.1251812 -0.2645522 -0.9562122
-163.7459 -5.650991 628.3577 -0.3986272 -0.2681818 -0.8770261
-161.5952 -5.588176 622.8313 -0.9677263 -0.0009351143 -0.2520016
2.849112 -4.468594 470.5951 -0.2986277 0.952143 -0.06515455
3.310042 -4.239773 470.8568 -0.6896204 0.617202 -0.3787945
3.834929 -4.222062 469.286 -0.571615 0.7651614 -0.296284
4.35838 -4.207486 467.9449 -0.619377 0.6585125 -0.4274733
12.90029 -4.034675 449.0016 -0.1738175 0.9178286 -0.3569008
13.4123 -4.037965 448.9706 -0.3041742 0.8855297 -0.3511626
13.91376 -4.052581 448.1456 -0.3765118 0.8355768 -0.4000627
14.4037 -4.042984 447.5143 -0.3984885 0.8286424 -0.3931397
91.86056 -4.113352 458.9648 -0.9215865 0.2815788 -0.2671919
92.16874 -4.183747 457.0099 -0.9670963 0.09713144 -0.2351389
92.38506 -4.167308 456.0452 -0.9484034 0.007172695 -0.316985
92.77912 -4.091985 455.7438 -0.9074975 -0.06742802 -0.4146101
93.1526 -3.936593 455.567 -0.8696283 -0.08292846 -0.4866924
93.60854 -4.009838 455.0423 -0.8225614 -0.2054038 -0.5302849
93.96197 -4.133932 454.3743 -0.7883498 -0.2477985 -0.5631167
94.48402 -4.068932 454.0592 -0.672845 -0.3657344 -0.6430535
94.89863 -4.090915 453.4677 -0.5893358 -0.464141 -0.6612536
95.38589 -4.069806 453.2693 -0.5216957 -0.5051196 -0.6875229
95.82819 -4.159736 453.1269 -0.4331982 -0.5557479 -0.7095658
96.30988 -4.014141 452.6745 -0.2921817 -0.6029317 -0.7423633
96.7606 -4.038707 452.4297 -0.2737363 -0.5637768 -0.7792459
97.28038 -4.145713 452.496 -0.2290046 -0.5420985 -0.8085086
97.76088 -4.10281 452.3057 -0.2106831 -0.5749631 -0.7905883
98.28361 -4.040296 452.3768 0.0145962 -0.5714555 -0.8205032
98.85651 -4.088452 452.4303 0.2258153 -0.5216538 -0.82273
99.36016 -4.090867 452.4144 0.3503864 -0.4620723 -0.8146893
99.97472 -4.187331 452.671 0.3118783 -0.4709977 -0.8251624
100.528 -4.096644 453.1822 0.4893549 -0.3619039 -0.7934465
101.1745 -3.994171 453.3804 0.6338258 -0.2316058 -0.7379861
101.8128 -4.016203 453.7438 0.6108305 -0.1188488 -0.7827906
102.3472 -3.988469 454.0714 0.6858965 0.1677516 -0.7080998
102.6822 -4.201501 454.0509 0.6100126 0.3369442 -0.7171842
103.4995 -4.03956 454.8353 0.663452 0.5072345 -0.5500404
103.8796 -4.082129 454.0533 0.7501653 0.3411873 -0.56643
-218.5369 -4.752001 610.4394 0.2878834 -0.2190162 -0.9322848
-217.8921 -4.754547 610.5349 0.2730183 -0.2186003 -0.936843
-217.2635 -4.732234 610.6893 0.3016346 -0.2219902 -0.92722
-216.6347 -4.805569 610.9437 0.3718891 -0.2270808 -0.9000738
-216.077 -4.763998 611.2552 0.3062405 -0.2301466 -0.9237149
-215.4742 -4.840421 611.4384 0.2494944 -0.2532249 -0.9346815
-214.7307 -4.717386 611.6017 0.2669054 -0.2282891 -0.9362935
-214.1228 -4.818722 611.7917 0.29931 -0.2610519 -0.9177502
-213.5259 -4.769723 612.0261 0.3672521 -0.2733529 -0.8890468
-212.8959 -4.748438 612.2562 0.327569 -0.2989626 -0.8962812
-212.2636 -4.822394 612.498 0.327636 -0.2465312 -0.9120729
-211.6628 -4.775447 612.7361 0.3145357 -0.2150369 -0.9245682
-210.992 -4.774369 612.8995 0.2420024 -0.1586808 -0.9572122
-210.3596 -4.759642 613.0574 0.2677533 -0.1608189 -0.9499713
-209.7301 -4.809927 613.2921 0.3064978 -0.1566801 -0.9388878
-209.1181 -4.787804 613.5447 0.3443526 -0.1686357 -0.9235709
-208.4814 -4.764533 613.7453 0.3650255 -0.1935098 -0.9106648
-207.8502 -4.814791 613.9744 0.3473493 -0.2016621 -0.9157952
-207.2721 -4.772968 614.2681 0.2829924 -0.1874708 -0.9406222
-206.6591 -4.871838 614.4258 0.2325998 -0.2280135 -0.9454667
-205.8913 -4.750803 614.5659 0.2724973 -0.252224 -0.9285086
-205.2914 -4.823205 614.7819 0.3515452 -0.2743405 -0.8950716
-204.7205 -4.842806 615.1354 0.4090109 -0.2825186 -0.8676943
-204.0928 -4.827551 615.3389 0.2641714 -0.2674581 -0.9266496
-203.4291 -4.807498 615.5069 0.1946972 -0.2530943 -0.9476478
-202.7403 -4.815842 615.5126 0.194672 -0.1936703 -0.9615583
-202.0734 -4.813045 615.6805 0.2757439 -0.2109837 -0.9377906
-201.442 -4.782728 615.8737 0.4696561 -0.229718 -0.8524393
-200.8848 -4.797192 616.2402 0.4464979 -0.249504 -0.8592947
-200.2812 -4.828368 616.6606 0.3549128 -0.2316587 -0.9057434
-199.6034 -4.803277 616.8276 0.2634504 -0.2225199 -0.938658
-198.949 -4.78716 616.9587 0.2157612 -0.2258614 -0.9499651
-198.3022 -4.876025 617.1249 0.2698891 -0.2255662 -0.9360982
-197.6641 -4.83809 617.325 0.3586037 -0.2458074 -0.9005455
-197.0403 -4.790082 617.5339 0.3673866 -0.25888 -0.8933131
-196.4508 -4.818746 617.9014 0.3197785 -0.2514789 -0.9135097
-195.8519 -4.883392 618.0906 0.2306508 -0.2260192 -0.9464225
-195.0431 -4.776028 618.2031 0.1996929 -0.220872 -0.9546404
-194.4264 -4.868165 618.3233 0.2942105 -0.1893671 -0.9367925
-193.8263 -4.819251 618.5925 0.3681071 -0.206967 -0.9064556
-193.1884 -4.864423 618.9005 0.3116131 -0.215391 -0.925475
-192.5295 -4.828139 619.0895 0.3101346 -0.2170896 -0.9255748
-191.8874 -4.813707 619.1929 0.275818 -0.2310643 -0.9330239
-191.2553 -4.844142 619.4954 0.2944722 -0.2084449 -0.9326505
-190.6051 -4.806382 619.6795 0.3482257 -0.2395118 -0.9062962
-189.96 -4.874689 619.9529 0.3344338 -0.2648388 -0.9044415
-189.3554 -4.887925 620.2945 0.3638138 -0.2501058 -0.8972661
-188.7077 -4.863104 620.4256 0.355282 -0.2543069 -0.8995013
-188.059 -4.834216 620.6314 0.2579453 -0.2270398 -0.9391044
-187.4063 -4.896287 620.8945 0.3033778 -0.2329838 -0.9239483
-186.7367 -4.859626 620.999 0.3186611 -0.2501142 -0.9142745
-186.0971 -4.894234 621.3072 0.3448264 -0.2539862 -0.9036513
-185.4953 -4.831488 621.5809 0.3824878 -0.2323502 -0.8942687
-184.8321 -4.893763 621.8027 0.2720641 -0.1987052 -0.9415399
-184.1669 -4.872727 621.9359 0.3031405 -0.2185356 -0.9275495
-183.5217 -4.852499 622.0984 0.296358 -0.2566303 -0.9199527
-182.8755 -4.871042 622.3932 0.3623796 -0.285271 -0.8873
-182.2223 -4.838956 622.5703 0.2918199 -0.2845569 -0.9131641
-181.5817 -4.884421 622.8477 0.2415577 -0.2318627 -0.9422789
-180.9102 -4.833101 622.9978 0.241824 -0.2279686 -0.9431604
-180.2419 -4.924854 623.1453 0.3026815 -0.2237541 -0.9264545
-179.5921 -4.864205 623.3443 0.3973447 -0.211222 -0.8930299
-179.0039 -4.865063 623.7687 0.3779571 -0.2288844 -0.8970844
-178.3346 -4.927688 623.9949 0.2605924 -0.2234294 -0.9392396
-177.6673 -4.910639 624.0629 0.06636655 -0.2090522 -0.9756498
-176.9574 -4.881932 624.1572 0.1784649 -0.2193644 -0.9591817
-176.2892 -4.868612 624.2052 0.3653787 -0.2220911 -0.9039767
-175.6129 -5.002038 624.7995 0.5452116 -0.2405564 -0.8030423
-175.1185 -4.823697 625.0883 0.5750472 -0.2583622 -0.7762536
-174.4688 -5.00712 625.5312 0.3432035 -0.2376287 -0.9087046
-173.7134 -4.850475 625.6408 0.2359528 -0.2790776 -0.9308286
-173.1028 -4.935448 625.7463 0.1694426 -0.264807 -0.9492979
-172.4212 -4.866295 625.8638 0.2515164 -0.3281529 -0.9105247
-171.7795 -4.944395 626.1481 0.2864586 -0.3134755 -0.9053588
-171.1234 -4.862434 626.3524 0.3392131 -0.2951372 -0.8932124
-170.4683 -4.907327 626.5981 0.3034256 -0.2600116 -0.9166934
-169.8145 -4.952684 626.8439 0.3345141 -0.2777691 -0.9005247
-169.161 -4.867485 627.0538 0.2738989 -0.3409278 -0.899304
-168.507 -4.952012 627.3124 0.3746275 -0.3262011 -0.8678981
-167.8752 -4.846212 627.4556 0.4105764 -0.2936831 -0.8632365
-167.1618 -4.967718 627.9827 0.3274949 -0.2665763 -0.906468
-166.5775 -4.936959 628.0638 0.338602 -0.2815406 -0.8978215
-165.8623 -4.885675 628.1819 0.284368 -0.264498 -0.9215073
-165.2267 -4.917696 628.5025 0.1646013 -0.2636274 -0.9504772
-164.4985 -4.921618 628.4663 -0.1425942 -0.2676535 -0.9529053
-163.658 -4.92254 627.9989 -0.4889967 -0.2515184 -0.8352369
-161.395 -4.87688 622.0599 -0.9677263 -0.0009351143 -0.2520016
91.86917 -3.597595 459.0062 -0.9215865 0.2815788 -0.2671919
92.15077 -3.586209 457.7978 -0.9786487 -0.02412211 -0.2041195
92.55044 -3.582425 457.1859 -0.9421378 -0.1720798 -0.2876891
92.70509 -3.630232 455.8296 -0.9017507 -0.2161712 -0.3743199
93.331 -3.572749 455.4719 -0.8184441 -0.3976668 -0.4147412
93.54603 -3.508736 454.2039 -0.679148 -0.5062099 -0.5315162
93.94407 -3.475888 453.4574 -0.5958319 -0.5347356 -0.5992012
94.34743 -3.517465 453.2034 -0.5275111 -0.5782276 -0.6224026
94.80466 -3.533048 452.9618 -0.4584947 -0.6309461 -0.6258511
95.19736 -3.552368 452.0744 -0.3767444 -0.635161 -0.6742656
95.60007 -3.529357 451.876 -0.3858004 -0.6321189 -0.6719998
96.10879 -3.524946 451.7818 -0.2337279 -0.6578131 -0.715998
96.62656 -3.453072 451.7813 -0.1670775 -0.6256425 -0.7620081
97.12262 -3.468204 451.7364 -0.1744794 -0.611315 -0.7719137
97.63327 -3.494651 451.6674 -0.171154 -0.6398071 -0.749235
98.09362 -3.533509 451.4087 -0.09028598 -0.6214879 -0.7782038
98.52267 -3.427208 451.3275 0.01875672 -0.5991802 -0.8003945
99.1647 -3.549162 451.4919 0.2161093 -0.5958071 -0.7735054
99.65546 -3.422225 451.7983 0.2950306 -0.590018 -0.7515554
100.2714 -3.475003 452.0847 0.349013 -0.5351512 -0.7692874
100.8428 -3.5383 452.1933 0.3959963 -0.4989584 -0.7708614
101.6559 -3.55138 453.49 0.5751113 -0.4333541 -0.6938668
102.3098 -3.5637 454.3611 0.7250245 -0.197515 -0.6597933
103.1565 -3.561727 455.5365 0.86118 0.06960134 -0.5035123
103.8889 -3.56567 456.4659 -0.3117957 0.9333065 -0.1781076
104.1332 -3.554213 455.2516 0.9934302 -0.03566961 -0.1087389
-218.4923 -4.08716 610.2211 0.2238483 -0.1753217 -0.9587253
-217.877 -4.066561 610.4247 0.2357288 -0.1860922 -0.9538351
-217.2289 -4.072205 610.5839 0.2727935 -0.1882252 -0.9434803
-216.6219 -4.060379 610.8293 0.3506776 -0.2130514 -0.9119399
-215.9999 -4.092261 611.1154 0.3156304 -0.2316966 -0.9201598
-215.3821 -4.080081 611.3073 0.2921578 -0.2376482 -0.9263731
-214.7152 -4.084687 611.3936 0.3059484 -0.2344291 -0.9227343
-214.0986 -4.068184 611.6147 0.2838957 -0.2186068 -0.9336028
-213.4773 -4.118304 611.8796 0.3332004 -0.2267636 -0.9151807
-212.8472 -4.105728 612.054 0.3275495 -0.2308296 -0.9162036
-212.215 -4.079846 612.2822 0.346574 -0.2322247 -0.9088224
-211.6181 -4.104706 612.6243 0.3203298 -0.2428552 -0.9156474
-210.9997 -4.092582 612.8557 0.2970386 -0.2323749 -0.9261587
-210.3286 -4.09823 612.9518 0.2901228 -0.2034063 -0.9351227
-209.7099 -4.060202 613.1461 0.2903016 -0.1951209 -0.9368312
-209.0753 -4.133249 613.3785 0.3326975 -0.243093 -0.9111631
-208.4378 -4.111498 613.5993 0.3290885 -0.2498151 -0.9106553
-207.8294 -4.064523 613.829 0.3385242 -0.271657 -0.9008906
-207.1858 -4.143795 614.09 0.2928154 -0.2594808 -0.9202874
-206.5571 -4.127073 614.24 0.2157919 -0.2573966 -0.9419028
-205.8739 -4.121081 614.2999 0.2876174 -0.2631488 -0.9208849
-205.236 -4.079963 614.5147 0.3152432 -0.2655069 -0.9111135
-204.6325 -4.149831 614.8995 0.4215185 -0.257223 -0.8695738
-204.0271 -4.060288 615.1254 0.318529 -0.2396043 -0.9171309
-203.4246 -4.17012 615.3006 0.2040027 -0.2523763 -0.9458801
-202.6496 -4.050216 615.4315 0.2174312 -0.2208454 -0.9507634
-202.0364 -4.120776 615.5453 0.2605257 -0.1803456 -0.9484735
-201.418 -4.108508 615.8124 0.4210199 -0.2317876 -0.876936
-200.7953 -4.140901 616.173 0.4394732 -0.2713418 -0.8562925
-200.237 -4.138204 616.5369 0.3638949 -0.2799723 -0.8883671
-199.6062 -4.132073 616.6825 0.2756442 -0.2646547 -0.9241094
-198.916 -4.12989 616.7906 0.2095408 -0.2462742 -0.9462778
-198.2509 -4.121469 616.973 0.2620323 -0.2403208 -0.9346576
-197.6013 -4.076834 617.1073 0.3281953 -0.2425074 -0.9129502
-196.9634 -4.144186 617.4038 0.3794176 -0.2813164 -0.8814213
-196.3732 -4.175605 617.7917 0.3364024 -0.2487332 -0.9082759
-195.7466 -4.125738 617.9745 0.2766391 -0.2298518 -0.9330804
-195.0549 -4.130052 618.0289 0.2108237 -0.1983643 -0.9571859
-194.4095 -4.108037 618.1902 0.2727796 -0.209461 -0.938998
-193.7527 -4.155591 618.4355 0.3598971 -0.2234641 -0.9058354
-193.1512 -4.106683 618.7034 0.3146051 -0.230642 -0.9207757
-192.4936 -4.183196 618.9209 0.3270618 -0.2329915 -0.9158305
-191.8432 -4.132215 619.1 0.2967151 -0.2089293 -0.9318309
-191.2163 -4.178434 619.4086 0.2727059 -0.2302117 -0.9341488
-190.5698 -4.16218 619.5099 0.334255 -0.2372133 -0.9121422
-189.903 -4.114191 619.6841 0.3106316 -0.232462 -0.9216667
-189.2847 -4.16645 620.0524 0.3708223 -0.2423718 -0.8965192
-188.6548 -4.107228 620.2751 0.3943639 -0.2191847 -0.8924322
-187.991 -4.168974 620.4719 0.2997055 -0.2006208 -0.9326993
-187.3415 -4.140053 620.676 0.2835169 -0.187077 -0.9405426
-186.675 -4.110116 620.7881 0.2698456 -0.2076606 -0.9402449
-186.0502 -4.146837 621.0901 0.3257361 -0.2056756 -0.9228182
-185.4322 -4.180515 621.4266 0.3781891 -0.2212816 -0.8988924
-184.8111 -4.13146 621.6749 0.2948157 -0.2449495 -0.9236251
-184.1444 -4.193039 621.8597 0.3021613 -0.2045416 -0.9310538
-183.4796 -4.15674 622.0219 0.299474 -0.2048541 -0.9318531
-182.8408 -4.201412 622.3073 0.3407643 -0.1954857 -0.9196005
-182.1867 -4.154595 622.4765 0.3077932 -0.2413619 -0.9203302
-181.5466 -4.199658 622.7537 0.2695778 -0.2465639 -0.9308781
-180.8837 -4.174662 622.8645 0.2618399 -0.2447066 -0.933573
-180.1852 -4.166697 622.9963 0.292492 -0.2507188 -0.9228156
-179.6098 -4.11131 623.1232 0.3952751 -0.2458589 -0.8850486
-178.8559 -4.225064 623.6111 0.3330187 -0.2654034 -0.9047981
-178.2889 -4.173269 623.8555 0.2596008 -0.2397871 -0.9354728
-177.5977 -4.130885 623.8724 0.08688856 -0.1767929 -0.9804053
-176.9856 -4.232524 623.9875 0.1488103 -0.2161651 -0.9649498
-176.1308 -4.124074 624.0402 0.3439111 -0.2127411 -0.9145854
-175.5431 -4.169028 624.2205 0.4690152 -0.2289111 -0.853009
-175.0542 -4.153899 624.7297 0.5635856 -0.2433383 -0.7894033
-174.3904 -4.258779 625.3822 0.3824364 -0.2809774 -0.8802239
-173.7456 -4.179511 625.4681 0.2068461 -0.26986 -0.9404202
-173.0252 -4.185184 625.4572 0.1002143 -0.2927807 -0.9509135
-172.354 -4.153331 625.6067 0.2628659 -0.305682 -0.9151284
-171.6977 -4.184696 625.8509 0.3721722 -0.3048581 -0.8766695
-171.0498 -4.208025 626.1953 0.3559688 -0.2745436 -0.8932592
-170.4408 -4.235795 626.5073 0.2865414 -0.2611247 -0.921796
-169.765 -4.190092 626.6429 0.2809087 -0.2932065 -0.9138491
-169.0576 -4.155732 626.6882 0.2390446 -0.3243985 -0.9152177
-168.4048 -4.238798 626.9498 0.4048339 -0.3550825 -0.8426304
-167.838 -4.137663 627.1877 0.4821115 -0.2897657 -0.8268037
-167.1576 -4.222223 627.7662 0.3673702 -0.2370468 -0.8993598
-166.4717 -4.189996 627.8695 0.351424 -0.2023901 -0.9140784
-165.882 -4.143001 627.9481 0.2870984 -0.216451 -0.9331257
-165.1494 -4.188919 628.4432 0.1132538 -0.2066699 -0.9718338
-164.5145 -4.21307 628.5353 -0.2191644 -0.1981826 -0.9553484
-163.5623 -4.209104 627.6421 -0.6265244 -0.2004731 -0.7531784
-161.3058 -4.153505 621.7147 -0.967923 -0.0003408766 -0.2512465
92.28037 -3.052707 455.851 -0.9008014 -0.3007806 -0.3131899
92.55988 -3.042468 454.6596 -0.7783395 -0.4277841 -0.4595523
93.0042 -3.025046 454.2604 -0.764572 -0.42753 -0.4823357
93.45622 -2.99708 453.6975 -0.7324011 -0.4379295 -0.5213505
93.82272 -3.027345 453.2365 -0.7015965 -0.3461435 -0.6228539
94.30189 -2.936544 452.7503 -0.6793228 -0.2832121 -0.6769871
94.66341 -3.082758 452.5268 -0.6486447 -0.3157997 -0.6924815
95.15012 -3.02991 452.1869 -0.573136 -0.2697451 -0.7737911
95.62408 -3.016238 451.8921 -0.5535219 -0.1939486 -0.8099367
96.08866 -3.022262 451.721 -0.3575677 -0.2412507 -0.9021882
96.58729 -3.014957 451.6267 -0.08520282 -0.08453642 -0.9927709
97.01603 -3.009515 451.5677 -0.1656272 -0.1888294 -0.9679417
97.59097 -3.014568 451.4809 -0.1846699 -0.2324643 -0.9549122
98.14213 -3.004916 451.2491 -0.1352571 -0.17015 -0.9760914
98.46729 -2.972008 451.1766 -0.08670539 -0.1685216 -0.981877
99.13953 -3.021415 451.3343 0.3722915 -0.2437114 -0.8955466
99.55529 -2.984685 451.5345 0.3902286 -0.2155599 -0.8951288
100.2972 -3.035989 451.8089 0.4086221 -0.2716137 -0.8713518
100.717 -2.986014 451.9979 0.4719476 -0.4027938 -0.7842338
101.3437 -3.006758 452.2336 0.5082797 -0.4484036 -0.7352456
101.9721 -3.026671 452.5005 0.5525786 -0.4291426 -0.7144883
102.6487 -2.939051 453.701 0.5697436 -0.4314654 -0.6994495
103.633 -3.040804 455.3405 0.857436 -0.3395428 -0.3866705
-218.4793 -3.347191 610.1349 0.2897422 -0.1357139 -0.947434
-217.859 -3.401798 610.373 0.2751627 -0.1559522 -0.9486645
-217.2277 -3.401495 610.5219 0.2578812 -0.2070546 -0.9437296
-216.5668 -3.401696 610.6924 0.3163896 -0.222946 -0.9220589
-215.9453 -3.35811 610.902 0.2986372 -0.2465747 -0.9219635
-215.3747 -3.443225 611.1506 0.2818874 -0.2728079 -0.9198452
-214.6273 -3.328025 611.3077 0.3022353 -0.2585707 -0.9174939
-214.0277 -3.396468 611.4935 0.3098028 -0.2167473 -0.9257661
-213.425 -3.372329 611.7372 0.3215649 -0.2160961 -0.9218994
-212.758 -3.371772 611.9046 0.3039689 -0.2496846 -0.9193805
-212.1286 -3.341038 612.0641 0.3429472 -0.2686961 -0.9001054
-211.5639 -3.376269 612.4293 0.3317653 -0.2428953 -0.9115556
-210.9914 -3.456724 612.6833 0.2958475 -0.2500352 -0.9219309
-210.2394 -3.320027 612.8325 0.309036 -0.2334986 -0.921941
-209.6246 -3.417023 613.0009 0.2692414 -0.2251342 -0.9363886
-209.0188 -3.387703 613.2528 0.3258315 -0.2384731 -0.9148576
-208.371 -3.3369 613.4136 0.2988716 -0.2627449 -0.9174098
-207.7414 -3.435384 613.6525 0.3498592 -0.2589628 -0.9002981
-207.1232 -3.398685 613.8745 0.3377487 -0.251427 -0.9070339
-206.4672 -3.381192 614.0614 0.2337154 -0.2304402 -0.9446028
-205.7822 -3.378315 614.1454 0.2603152 -0.2327149 -0.9370592
-205.1583 -3.371355 614.3042 0.2881183 -0.2344445 -0.9284523
-204.552 -3.408377 614.6143 0.3996274 -0.2595469 -0.8791663
-203.9394 -3.369787 614.8774 0.3087844 -0.2735519 -0.9109454
-203.3196 -3.410804 615.1449 0.2358991 -0.2391699 -0.941886
-202.6509 -3.409038 615.276 0.2463367 -0.1872822 -0.9509172
-202.016 -3.373667 615.4354 0.2468339 -0.1926343 -0.9497184
-201.3671 -3.452281 615.6787 0.4197541 -0.2173841 -0.8812211
-200.7642 -3.391186 615.9308 0.3975177 -0.2228387 -0.890125
-200.1492 -3.448652 616.2985 0.3696234 -0.2266551 -0.9011138
-199.5091 -3.398306 616.4702 0.3135674 -0.2422791 -0.9181373
-198.8664 -3.376858 616.6376 0.2307523 -0.233126 -0.9446722
-198.2083 -3.45295 616.8358 0.2737851 -0.2201532 -0.9362555
-197.561 -3.42324 616.9759 0.3090387 -0.2204791 -0.92514
-196.9318 -3.394523 617.2045 0.3571018 -0.2221071 -0.9072743
-196.2982 -3.438773 617.5218 0.3900515 -0.2331181 -0.8907951
-195.6851 -3.37752 617.7633 0.3095659 -0.2179469 -0.9255636
-195.0269 -3.468981 617.9567 0.2312322 -0.1897542 -0.9542143
-194.3727 -3.424092 618.0826 0.2512795 -0.1596292 -0.9546607
-193.7356 -3.395805 618.3029 0.3141018 -0.2147082 -0.9247921
-193.0813 -3.457777 618.5526 0.3095483 -0.2329313 -0.9219126
-192.4412 -3.413203 618.7639 0.3419183 -0.2355986 -0.9097171
-191.7962 -3.387902 618.9035 0.3166232 -0.2230829 -0.9219456
-191.169 -3.43364 619.2119 0.259875 -0.2068204 -0.943234
-190.4798 -3.406626 619.3433 0.3043441 -0.2308819 -0.924158
-189.8319 -3.390599 619.4433 0.3091252 -0.2577776 -0.9154192
-189.2339 -3.4183 619.7901 0.387927 -0.2720382 -0.8806293
-188.5846 -3.456651 620.0853 0.3958357 -0.2332677 -0.8882006
-187.9911 -3.409543 620.3698 0.3222083 -0.1860509 -0.9282063
-187.3376 -3.444163 620.6215 0.2854257 -0.1842557 -0.9405222
-186.6514 -3.430935 620.7104 0.2666625 -0.2167671 -0.939097
-185.9892 -3.410316 620.8489 0.2633786 -0.2578225 -0.9296017
-185.371 -3.443711 621.1855 0.3618102 -0.3105355 -0.8790115
-184.7452 -3.479727 621.4835 0.3113255 -0.2962787 -0.9029371
-184.0825 -3.443197 621.6491 0.3375968 -0.2670417 -0.9026167
-183.4333 -3.411746 621.828 0.2989687 -0.2367566 -0.9244263
-182.7912 -3.441106 622.1055 0.3303883 -0.2392892 -0.9130083
-182.125 -3.403373 622.2676 0.2830268 -0.2314769 -0.93076
-181.469 -3.491306 622.4879 0.2774832 -0.2177131 -0.9357371
-180.8093 -3.408716 622.6328 0.2604153 -0.2153393 -0.9411763
-180.1859 -3.45106 622.9424 0.3050763 -0.2392348 -0.9217891
-179.4881 -3.455855 623.0123 0.3729813 -0.2367238 -0.8971325
-178.8939 -3.450829 623.4377 0.3156236 -0.2431104 -0.9172126
-178.3133 -3.511156 623.6271 0.3325852 -0.2393358 -0.9121981
-177.4599 -3.40463 623.6848 0.1187015 -0.2624929 -0.9576051
-176.8748 -3.467006 623.8685 0.1537388 -0.194203 -0.9688393
-176.1589 -3.456187 623.8651 0.3287338 -0.1989727 -0.9232247
-175.5639 -3.464313 624.2885 0.4828576 -0.2342074 -0.8437982
-174.9169 -3.472166 624.642 0.561262 -0.2678075 -0.7831119
-174.4096 -3.448358 625.1859 0.3824244 -0.2327908 -0.8941813
-173.7769 -3.525885 625.3002 0.223609 -0.2326685 -0.9465011
-172.9133 -3.421356 625.3401 0.1204578 -0.2065776 -0.970987
-172.2743 -3.502749 625.3491 0.2231141 -0.2454488 -0.9433849
-171.65 -3.434671 625.66 0.353581 -0.2325928 -0.9060249
-171.0473 -3.456142 625.9813 0.3719938 -0.2888665 -0.8821433
-170.3706 -3.510657 626.2413 0.3035366 -0.2634119 -0.9156854
-169.6632 -3.459439 626.3708 0.2473991 -0.2622666 -0.9327433
-168.9904 -3.44478 626.4293 0.209712 -0.2611217 -0.9422507
-168.3764 -3.456939 626.7308 0.4302395 -0.1988175 -0.8805485
-167.7252 -3.480681 627.0668 0.512355 -0.2555893 -0.8198576
-167.1252 -3.457321 627.7614 0.3657509 -0.27278 -0.8898411
-166.5014 -3.49808 627.7759 0.3592078 -0.3133153 -0.8790923
-165.8186 -3.46445 627.8803 0.2853103 -0.2744715 -0.9182937
-165.1271 -3.533681 628.4469 0.3735444 -0.2026764 -0.9051998
-164.569 -3.510204 628.4791 -0.2009773 -0.1862558 -0.961726
-163.4711 -3.479544 627.2906 -0.7461303 -0.1939712 -0.6369181
-160.8912 -3.437615 620.1163 -0.9679357 -0.0001095816 -0.2511982
-149.9843 -3.271371 588.4717 -0.01208392 0.9999134 -0.005196258
-149.0181 -3.265676 587.3208 -0.1795408 -0.9218088 -0.3435602
-148.4324 -3.256812 587.6644 -0.1795408 -0.9218088 -0.3435602
91.93022 -2.532787 456.7013 -0.8740239 -0.3582872 -0.328196
92.24987 -2.526425 455.7006 -0.908034 -0.2845926 -0.3073781
92.57217 -2.517456 454.562 -0.8807445 0.02120105 -0.4731169
93.00379 -2.521812 454.135 -0.8395151 0.07784908 -0.5377303
93.51381 -2.569937 453.6239 -0.7386439 0.2076658 -0.6413112
93.89433 -2.573526 453.1488 -0.6913929 0.1812266 -0.6993802
94.23048 -2.426315 452.38 -0.6306378 0.2471922 -0.7356576
94.63817 -2.538403 452.2121 -0.6315207 0.2423417 -0.7365134
95.25423 -2.600821 452.1885 -0.5694398 0.2390017 -0.7865218
95.67265 -2.632854 452.0088 -0.5271626 0.2358427 -0.8163809
96.11946 -2.508861 451.8274 -0.3099864 0.2372209 -0.9206707
96.60626 -2.580269 451.6465 -0.1808025 0.1796465 -0.9669734
97.13199 -2.505349 451.7446 -0.19238 0.1634535 -0.967612
97.62473 -2.456872 451.6659 -0.209523 0.221611 -0.9523596
98.11582 -2.549842 451.372 -0.09720015 0.2113148 -0.972573
98.492 -2.577188 451.2467 0.1028014 0.2302347 -0.9676899
99.10895 -2.543147 451.4756 0.3215502 0.2105927 -0.9231771
99.55893 -2.620992 451.5975 0.3767124 0.206737 -0.902966
100.1938 -2.548192 451.8233 0.366214 0.1876841 -0.9114066
100.7321 -2.530612 452.0127 0.3708301 0.2403329 -0.8970647
101.3536 -2.522491 452.2741 0.4728835 0.08328532 -0.87718
101.8323 -2.541191 452.5362 0.6039259 0.09082598 -0.7918485
102.5452 -2.485158 453.1686 0.6769518 -0.1279511 -0.7248204
103.3193 -2.491939 453.7375 0.780531 -0.2404812 -0.5770097
103.7548 -2.51604 453.5949 0.8694764 -0.2744436 -0.4107206
-218.364 -2.696174 609.9565 0.2841503 -0.2164845 -0.9340199
-217.8049 -2.661292 610.2263 0.1942178 -0.2293405 -0.9537727
-217.1426 -2.650449 610.4092 0.2198039 -0.2509825 -0.9427057
-216.4781 -2.656302 610.4875 0.2655754 -0.2660694 -0.9266481
-215.8638 -2.629011 610.6309 0.2815783 -0.2708324 -0.9205235
-215.2501 -2.720739 610.917 0.32551 -0.2614787 -0.908665
-214.6055 -2.695976 611.1043 0.3332223 -0.2530681 -0.9082507
-213.9963 -2.655781 611.325 0.3141727 -0.2239554 -0.9225722
-213.3828 -2.7166 611.597 0.3073112 -0.2158824 -0.926798
-212.7424 -2.714363 611.7388 0.2969173 -0.2344204 -0.925682
-212.0802 -2.690217 611.9168 0.3316444 -0.24009 -0.9123425
-211.4823 -2.655802 612.1531 0.3425674 -0.2518023 -0.9051206
-210.8683 -2.731681 612.4527 0.3361013 -0.2478685 -0.9086238
-210.2105 -2.695057 612.5973 0.3244406 -0.2313107 -0.9171879
-209.6121 -2.659203 612.8504 0.2630602 -0.2183856 -0.9397377
-209.0013 -2.751827 613.0321 0.300323 -0.2288828 -0.9259691
-208.2413 -2.621521 613.1706 0.2563546 -0.2463465 -0.9346634
-207.6639 -2.703864 613.406 0.3285046 -0.225357 -0.9172235
-207.0782 -2.657143 613.651 0.3351749 -0.234531 -0.9124982
-206.4486 -2.685375 613.9525 0.2668453 -0.2266203 -0.936716
-205.7863 -2.695354 614.0566 0.2937882 -0.18453 -0.9378897
-205.1334 -2.69589 614.2259 0.2844587 -0.1831351 -0.9410338
-204.5056 -2.718993 614.4946 0.3811891 -0.2010211 -0.9023777
-203.894 -2.698308 614.7567 0.3141941 -0.2075948 -0.9263836
-203.3283 -2.765574 615.0136 0.2489088 -0.2594883 -0.9331186
-202.5551 -2.633917 615.1404 0.2915751 -0.2465066 -0.9242394
-201.9374 -2.728054 615.2877 0.2629866 -0.2152756 -0.9404756
-201.3172 -2.699708 615.5267 0.3791091 -0.2367964 -0.894541
-200.685 -2.669519 615.7181 0.3537051 -0.2765651 -0.8935348
-200.0721 -2.704245 616.017 0.3506988 -0.2886097 -0.8909067
-199.431 -2.674612 616.2546 0.3351772 -0.2831298 -0.8986065
-198.7852 -2.728983 616.4528 0.2514502 -0.2324484 -0.9395427
-198.1592 -2.700224 616.6843 0.2765399 -0.201443 -0.9396523
-197.5115 -2.670637 616.8248 0.272149 -0.219753 -0.9368263
-196.8527 -2.746131 617.019 0.3615608 -0.2375003 -0.9015916
-196.2374 -2.689151 617.2563 0.4008094 -0.2435356 -0.8831999
-195.6384 -2.71922 617.629 0.3209465 -0.2310276 -0.9184877
-194.9754 -2.700077 617.7996 0.279034 -0.205676 -0.9379964
-194.3213 -2.670303 617.9329 0.2289699 -0.2080043 -0.9509506
-193.6624 -2.76129 618.1221 0.2853983 -0.2259737 -0.931388
-193.0393 -2.68936 618.3489 0.3019603 -0.240977 -0.9223611
-192.4037 -2.760305 618.6295 0.3378613 -0.2680773 -0.9022108
-191.7568 -2.722748 618.8168 0.3435244 -0.2766946 -0.897458
-191.1253 -2.751736 619.1191 0.2427255 -0.248356 -0.9377652
-190.4823 -2.737305 619.219 0.287298 -0.2451167 -0.925947
-189.7936 -2.725101 619.3561 0.303608 -0.2444289 -0.9209108
-189.1559 -2.742837 619.6682 0.3854347 -0.2441422 -0.8898509
-188.5651 -2.696273 619.9545 0.4741338 -0.2307564 -0.8496757
-187.92 -2.747855 620.2538 0.3520423 -0.1642188 -0.9214653
-187.3128 -2.75973 620.5897 0.2761298 -0.1410281 -0.9507173
-186.6636 -2.745055 620.6799 0.1950137 -0.1628119 -0.9671927
-185.9596 -2.749651 620.7106 0.2334021 -0.2060458 -0.9502992
-185.2849 -2.701658 620.8725 0.3081523 -0.2445822 -0.9193594
-184.6597 -2.753222 621.2273 0.3573831 -0.2968591 -0.8855235
-184.0206 -2.694058 621.4389 0.3971976 -0.2595425 -0.880268
-183.3639 -2.746496 621.6877 0.3289043 -0.2589632 -0.908163
-182.7573 -2.773415 622.0167 0.2928028 -0.2582287 -0.9206435
-182.096 -2.747671 622.1311 0.2551164 -0.2738631 -0.9273158
-181.4019 -2.722547 622.2631 0.3016711 -0.2635757 -0.9162545
-180.8286 -2.682047 622.3981 0.3113862 -0.2367221 -0.9203267
-180.1091 -2.843919 622.7731 0.2900863 -0.2058293 -0.9346038
-179.3819 -2.677518 622.8934 0.368542 -0.1968566 -0.9085286
-178.8233 -2.721745 623.1311 0.2766615 -0.1918695 -0.941618
-178.175 -2.785161 623.4396 0.3283135 -0.2244546 -0.9175132
-177.5017 -2.735593 623.572 0.1624709 -0.1815718 -0.9698633
-176.9049 -2.798436 623.6977 0.2058732 -0.1744445 -0.9629046
-176.1649 -2.648025 623.8192 0.3180352 -0.1385303 -0.9379035
-175.438 -2.789933 624.1721 0.4637169 -0.1516453 -0.8729091
-175.005 -2.692931 624.5375 0.5458789 -0.2092428 -0.811316
-174.245 -2.808513 625.0046 0.3763744 -0.2287672 -0.8977794
-173.67 -2.733551 625.2137 0.2727947 -0.2101427 -0.9388413
-172.9462 -2.750572 625.1691 0.1201768 -0.1708002 -0.9779493
-172.2754 -2.719347 625.32 0.2302397 -0.1908471 -0.9542363
-171.5715 -2.770936 625.4891 0.3150775 -0.2116181 -0.9251724
-170.9697 -2.791961 625.81 0.4033211 -0.2640524 -0.8761327
-170.3144 -2.721474 626.0233 0.3249606 -0.228072 -0.9178147
-169.6636 -2.745006 626.2609 0.250881 -0.2269532 -0.9410372
-168.986 -2.765623 626.4186 0.2847408 -0.1911986 -0.9393432
-168.3074 -2.800511 626.5767 0.431443 -0.1974669 -0.8802635
-167.6505 -2.723737 626.845 0.4635749 -0.2656599 -0.8452947
-167.2415 -2.767815 627.9562 0.346969 -0.2921798 -0.8912034
-166.38 -2.740294 627.561 0.3766073 -0.2968771 -0.877514
-165.7438 -2.68999 627.5668 0.2786912 -0.3398968 -0.8982212
-165.1001 -2.838001 628.1849 0.3885372 -0.3484384 -0.853012
-164.4393 -2.771769 628.25 -0.2421466 -0.2716449 -0.9314365
-163.3775 -2.769072 626.9315 -0.7429441 -0.1816144 -0.6442439
-160.8 -2.735334 619.7653 -0.9679503 -0.0001628951 -0.2511415
-155.7068 -2.657103 602.7959 -1 -1 -1
-153.8065 -2.641603 598.0917 -0.9685891 -0.0001195586 -0.2486666
-152.4251 -2.624618 595.3716 -1 -1 -1
-148.6585 -2.57458 585.9017 0.2346419 -0.8960421 -0.3768976
91.57861 -2.010781 457.554 -0.9663122 0.2344492 -0.1061801
91.83232 -2.022773 457.0785 -0.945669 0.07464616 -0.3164461
92.34179 -2.055127 455.3902 -0.9112238 0.08002581 -0.4040632
92.65049 -2.043357 454.6473 -0.9058643 0.09448556 -0.4128951
93.04434 -2.030611 454.3651 -0.8568303 0.1012943 -0.5055505
93.46073 -2.008163 453.9399 -0.8358473 0.1096226 -0.5379053
93.84111 -1.92667 453.6255 -0.8132132 -0.01175815 -0.5818471
94.34405 -1.975887 453.2796 -0.7309341 -0.07864434 -0.6779014
94.81374 -2.023404 453.2019 -0.6592219 -0.05680114 -0.7498
95.15205 -1.944756 452.7659 -0.559194 -0.08605283 -0.8245586
95.55383 -1.971399 452.4435 -0.5729381 -0.1444902 -0.8067617
96.17227 -1.973555 452.0589 -0.4353434 -0.1817058 -0.8817364
96.66109 -2.126331 452.2035 -0.1691565 -0.2091939 -0.9631324
97.13203 -2.074847 451.9647 -0.2236325 -0.2835589 -0.9325143
97.6084 -1.995367 451.7307 -0.2178286 -0.2784882 -0.9354117
98.24291 -2.018739 451.7422 -0.1037483 -0.2701697 -0.9572067
98.67545 -2.048424 451.86 0.1897053 -0.2340278 -0.9535423
99.3779 -1.890414 451.8631 0.3628078 -0.05425502 -0.9302832
99.8886 -1.844495 452.0868 0.3539538 -0.01630216 -0.9351208
100.2547 -2.029525 452.0309 0.474051 -0.01502432 -0.8803692
100.8834 -1.977497 452.3029 0.4770355 0.09699076 -0.8735158
101.4962 -1.951672 452.5981 0.5907848 0.1246874 -0.7971364
101.9081 -2.077343 452.753 0.6045036 0.1838865 -0.7750878
102.5219 -1.990934 453.0202 0.6303133 0.1950047 -0.7514508
103.1695 -2.074028 453.7347 0.8194045 -0.004030912 -0.5732014
104.0307 -1.995097 454.8016 0.900748 0.1005131 -0.422552
-218.3757 -1.935665 609.85 0.3482884 -0.2164425 -0.9120569
-217.7577 -2.007686 610.0844 0.2326275 -0.2165558 -0.9481497
-217.1432 -2.026511 610.1721 0.2210885 -0.2163735 -0.9509481
-216.3742 -1.91305 610.2833 0.2166291 -0.2064607 -0.9541728
-215.7806 -1.997049 610.4959 0.2707376 -0.2247116 -0.9360586
-215.1781 -1.971353 610.7277 0.3355091 -0.2320138 -0.9130188
-214.5481 -1.940248 610.9503 0.3497972 -0.238274 -0.9060174
-213.9333 -2.000155 611.2256 0.3421957 -0.2085089 -0.9162019
-213.327 -1.974418 611.4531 0.3083192 -0.2044095 -0.9290619
-212.6658 -1.950207 611.6328 0.2723264 -0.2112423 -0.9387305
-212.024 -1.948002 611.7731 0.3038155 -0.2176803 -0.9275297
-211.4084 -2.008329 612.0398 0.345574 -0.2307602 -0.9095759
-210.7961 -1.967127 612.2582 0.3564664 -0.2401895 -0.9029068
-210.157 -1.950966 612.4748 0.3321967 -0.2368429 -0.91299
-209.5394 -2.011244 612.7361 0.2963558 -0.2009569 -0.9336967
-208.9082 -1.979814 612.9074 0.2855295 -0.2031038 -0.9366012
-208.2471 -1.983192 613.056 0.2583899 -0.2140543 -0.9420273
-207.6096 -1.974088 613.221 0.3593642 -0.2110483 -0.9090193
-207.0038 -1.992128 613.5538 0.3614821 -0.1888226 -0.9130589
-206.4669 -2.052409 613.8511 0.2666306 -0.1800991 -0.9468223
-205.6954 -1.939461 613.9829 0.278376 -0.1856036 -0.9423684
-205.0906 -2.005944 614.1447 0.2560002 -0.1861102 -0.9485921
-204.4701 -1.981794 614.3677 0.3789348 -0.2240416 -0.8978941
-203.8256 -1.960656 614.5763 0.3323146 -0.2306549 -0.9145302
-203.2064 -2.027661 614.7759 0.2694143 -0.2219543 -0.9370977
-202.5435 -2.000486 614.9155 0.3043298 -0.2182751 -0.9272213
-201.9236 -1.969251 615.1406 0.2609729 -0.2182496 -0.9403512
-201.2841 -2.021365 615.3633 0.370039 -0.2014104 -0.9069206
-200.6426 -1.995927 615.5987 0.342182 -0.2055417 -0.9168774
-200.0304 -2.029989 615.8975 0.3244705 -0.2458502 -0.9133874
-199.3963 -1.999787 616.0854 0.3537461 -0.2316784 -0.9061946
-198.7703 -1.971647 616.3184 0.291362 -0.2262705 -0.9294675
-198.1182 -2.046815 616.5535 0.3045574 -0.2079337 -0.9295205
-197.4697 -2.002112 616.6875 0.2504446 -0.21181 -0.9446766
-196.8032 -1.993883 616.8678 0.3270192 -0.2322417 -0.9160361
-196.2596 -1.957941 617.0302 0.3654803 -0.2510974 -0.8963115
-195.5201 -2.048709 617.587 0.3328589 -0.2655447 -0.9048154
-194.975 -2.022594 617.7099 0.3032267 -0.2409875 -0.9219428
-194.2823 -2.018008 617.7989 0.2304219 -0.2135287 -0.9493741
-193.6106 -1.992816 617.9653 0.2984644 -0.2388817 -0.9240425
-192.9545 -1.963102 618.0954 0.2959971 -0.2293491 -0.9272457
-192.3188 -2.033678 618.3759 0.3125328 -0.2300619 -0.9216262
-191.6932 -1.961682 618.5995 0.3331392 -0.2334405 -0.9135228
-191.0547 -2.032636 618.8774 0.28835 -0.2121591 -0.9337252
-190.3907 -1.998796 619.0595 0.2852992 -0.1981947 -0.9377223
-189.73 -1.963772 619.1391 0.2825779 -0.2186857 -0.9339841
-189.1139 -2.012175 619.4563 0.3701549 -0.2290978 -0.9002775
-188.4992 -2.046294 619.8018 0.4757655 -0.2444632 -0.8449171
-187.9043 -1.983992 620.0815 0.4229547 -0.2647565 -0.8666103
-187.2665 -2.016871 620.3934 0.2877329 -0.1986673 -0.9368784
-186.5708 -2.00563 620.5197 0.1760625 -0.179682 -0.967841
-185.8688 -1.99448 620.5434 0.1771645 -0.2096749 -0.9615868
-185.2141 -1.97834 620.6321 0.2919761 -0.2309172 -0.928131
-184.6098 -2.005013 620.9662 0.3783925 -0.2188614 -0.8993991
-183.9554 -2.04244 621.2474 0.4177342 -0.2258603 -0.8800484
-183.3512 -1.995516 621.5215 0.3172768 -0.2072516 -0.9254091
-182.7082 -2.02805 621.8202 0.2951533 -0.1919907 -0.9359615
-182.0289 -1.979902 621.9068 0.2217025 -0.1957947 -0.9552551
-181.3733 -2.066844 622.1266 0.3099889 -0.2271074 -0.9232167
-180.7048 -2.029672 622.2837 0.349384 -0.2189824 -0.9110309
-180.1158 -2.021687 622.714 0.3216193 -0.2077 -0.9238083
-179.4181 -2.026143 622.7829 0.3303152 -0.2303014 -0.9153431
-178.7568 -2.059198 623.0097 0.2484354 -0.2411479 -0.9381512
-178.1389 -1.996823 623.2667 0.3273746 -0.2568521 -0.9093144
-177.4575 -2.06825 623.4221 0.198653 -0.2204701 -0.9549502
-176.7982 -2.029355 623.6394 0.2667131 -0.1945091 -0.943944
-176.1059 -2.032257 623.6637 0.2826715 -0.2093399 -0.9360948
-175.5297 -2.015623 624.0662 0.4334883 -0.2305904 -0.8711579
-174.8595 -2.055657 624.3749 0.5111187 -0.2184329 -0.831291
-174.2637 -2.070415 624.7661 0.4211079 -0.2477737 -0.8725114
-173.6153 -1.999823 624.9877 0.292309 -0.174082 -0.9403461
-172.9299 -2.084226 625.0954 0.120964 -0.183947 -0.9754646
-172.2459 -2.031608 625.2249 0.2081279 -0.1548334 -0.9657688
-171.543 -2.000739 625.275 0.2649306 -0.1797526 -0.9473652
-170.9194 -2.045077 625.6174 0.399984 -0.2080229 -0.8926025
-170.3333 -1.982546 625.7872 0.3785681 -0.1939863 -0.9050169
-169.5695 -2.095308 626.2357 0.2704951 -0.1363159 -0.9530217
-168.9803 -2.064856 626.3103 0.2706838 -0.1382304 -0.9526923
-168.3022 -2.001855 626.5385 0.2340433 -0.1856155 -0.954343
-167.6037 -2.060754 626.715 0.4271726 -0.3107784 -0.8490821
-166.9887 -2.064891 627.0474 0.3419565 -0.3233164 -0.8823447
-166.3028 -2.024648 627.2231 0.2991562 -0.340369 -0.8914339
-165.7171 -1.993955 627.3084 0.243114 -0.3182827 -0.9162924
-165.0017 -2.112479 627.827 0.3573069 -0.3826098 -0.8520219
-164.3481 -2.046706 627.8887 -0.4083152 -0.3368443 -0.8484189
-163.2864 -2.041112 626.5808 -0.7199696 -0.1716438 -0.6724448
-161.1416 -2.027191 621.0807 -0.9679492 -0.0002094831 -0.2511461
-153.6257 -1.944571 597.3875 -0.9685891 -0.0001195586 -0.2486666
-152.4421 -1.936214 595.437 -0.9685431 -0.0003724926 -0.2488452
91.31094 -1.485019 456.2159 -0.9809453 0.03325122 -0.1914175
91.91116 -1.494633 456.5911 -0.9529042 0.0637813 -0.2964888
92.28957 -1.487146 455.8023 -0.9447262 -0.004652787 -0.3278269
92.64198 -1.415478 455.4474 -0.9185067 -0.05934748 -0.3909263
92.99473 -1.40182 455.0324 -0.8653581 -0.1152546 -0.4877211
93.3549 -1.551231 454.2585 -0.8230167 -0.3056072 -0.4787982
93.97189 -1.49655 453.7964 -0.7710895 -0.4105775 -0.4866694
94.39654 -1.476538 453.3975 -0.6344905 -0.4875916 -0.59973
94.76513 -1.510563 453.0294 -0.5736536 -0.5135785 -0.63809
95.22598 -1.472837 452.5209 -0.4885891 -0.5223783 -0.6988574
95.65405 -1.478909 452.1046 -0.4328796 -0.5308944 -0.7285371
96.12468 -1.492785 451.8751 -0.3534439 -0.5511554 -0.7558472
96.60211 -1.452374 451.6891 -0.1985078 -0.5783762 -0.7912493
97.10685 -1.482412 451.6301 -0.2064561 -0.5935049 -0.7778996
97.61042 -1.505653 451.5756 -0.174289 -0.6247041 -0.7611623
98.08701 -1.458362 451.3985 -0.04370758 -0.6337941 -0.7722659
98.64285 -1.502575 451.5126 0.1122995 -0.6032172 -0.7896314
99.14291 -1.449368 451.5295 0.3103473 -0.5284543 -0.7902028
99.76645 -1.527071 451.8026 0.3749335 -0.4773104 -0.7947325
100.4089 -1.462633 452.3143 0.4567287 -0.4175913 -0.7855039
100.9796 -1.505619 452.4525 0.5609029 -0.3363374 -0.7564819
101.6179 -1.391111 452.884 0.6261759 -0.2060845 -0.7519526
102.2556 -1.493101 453.8033 0.6838295 0.06532595 -0.7267116
102.8558 -1.421664 453.9336 0.7264525 0.2120985 -0.6536673
103.4868 -1.480164 454.6969 0.7098538 0.3573987 -0.6069381
104.1516 -1.447423 455.1934 0.7830948 0.3080608 -0.5402415
103.9745 -1.468773 452.2936 -0.7156717 -0.449825 -0.5342951
-218.2638 -1.302713 609.6695 0.2844009 -0.2164284 -0.9339566
-217.7027 -1.267285 609.9388 0.1963793 -0.2004248 -0.9598255
-217.0311 -1.279157 610.0799 0.1966849 -0.2035211 -0.9591112
-216.3777 -1.270114 610.1757 0.2327105 -0.2042867 -0.9508485
-215.7541 -1.260961 610.3609 0.2810955 -0.2038825 -0.9377725
-215.1312 -1.316899 610.5871 0.3486484 -0.1969288 -0.9163315
-214.5018 -1.285826 610.8094 0.3741418 -0.2153898 -0.9020117
-213.8966 -1.260127 611.0385 0.3452039 -0.2058369 -0.9156775
-213.2816 -1.319399 611.312 0.3072018 -0.2166457 -0.9266562
-212.6439 -1.301645 611.4491 0.2724174 -0.2110939 -0.9387375
-211.9814 -1.293428 611.6301 0.3028896 -0.2037862 -0.9309828
-211.3722 -1.267833 611.8529 0.3340692 -0.2068385 -0.9195737
-210.7537 -1.310631 612.117 0.3541238 -0.2080513 -0.9117627
-210.1159 -1.295792 612.3314 0.356353 -0.2142805 -0.9094484
-209.5029 -1.270189 612.5498 0.3050378 -0.181687 -0.9348486
-208.8826 -1.312942 612.8085 0.2781185 -0.1920678 -0.9411483
-208.2377 -1.312379 612.936 0.2571157 -0.1843476 -0.9486345
-207.5673 -1.303264 613.1071 0.3561025 -0.1738635 -0.9181299
-206.9808 -1.25282 613.3505 0.3574891 -0.1919614 -0.9139761
-206.354 -1.299574 613.6762 0.3078226 -0.2238923 -0.9247257
-205.6946 -1.294966 613.8179 0.3001198 -0.2284981 -0.92613
-205.0363 -1.270753 613.9355 0.2438216 -0.2191233 -0.9447412
-204.4314 -1.328273 614.2202 0.3480526 -0.2276514 -0.9094142
-203.7844 -1.307727 614.4266 0.3002709 -0.2416879 -0.9227266
-203.1323 -1.277478 614.5846 0.2511945 -0.2240956 -0.9416382
-202.4804 -1.261265 614.7831 0.3068234 -0.2422319 -0.9204255
-201.8557 -1.319842 615.0243 0.2914838 -0.2076751 -0.9337602
-201.2238 -1.279587 615.217 0.3692065 -0.2138042 -0.9044193
-200.5922 -1.266663 615.4321 0.3149911 -0.228644 -0.9211419
-199.9796 -1.284964 615.7311 0.3304331 -0.2184462 -0.9182022
-199.3265 -1.241423 615.9276 0.3786052 -0.2326572 -0.8958397
-198.6946 -1.325223 616.1693 0.308437 -0.2013512 -0.9296904
-198.068 -1.278247 616.3762 0.3395083 -0.1973303 -0.9196711
-197.4183 -1.250112 616.5365 0.2447556 -0.1778252 -0.9531385
-196.7623 -1.342225 616.7346 0.311165 -0.1876556 -0.9316446
-196.1234 -1.289 616.9293 0.3501601 -0.2181548 -0.9109316
-195.5402 -1.333424 617.3397 0.335761 -0.2399795 -0.9108647
-194.8822 -1.286599 617.4896 0.3245505 -0.2336217 -0.9165631
-194.2324 -1.248866 617.6245 0.2439439 -0.2210044 -0.9442714
-193.5746 -1.325103 617.8633 0.2830685 -0.2127568 -0.9352041
-192.9262 -1.304425 618.0198 0.2750041 -0.2163944 -0.9367743
-192.277 -1.266417 618.1725 0.276451 -0.2485741 -0.9283242
-191.6219 -1.326865 618.4178 0.3436759 -0.2783838 -0.8968775
-191.0166 -1.278246 618.6812 0.3404312 -0.2638991 -0.9024765
-190.3573 -1.323814 618.9161 0.2855267 -0.2294941 -0.9304875
-189.7051 -1.301709 619.0665 0.2901693 -0.2391666 -0.9266073
-189.0511 -1.279954 619.2155 0.3226235 -0.2413038 -0.9152521
-188.4318 -1.300617 619.5549 0.4524162 -0.2567839 -0.8540384
-187.831 -1.323604 619.9642 0.4370838 -0.2688206 -0.8583084
-187.2278 -1.349298 620.3054 0.3282949 -0.245605 -0.9120859
-186.5777 -1.318475 620.3917 0.1809832 -0.188497 -0.9652533
-185.8732 -1.313935 620.4555 0.1646515 -0.1668459 -0.972138
-185.1923 -1.312903 620.603 0.2806326 -0.1859299 -0.9416344
-184.5353 -1.328727 620.8422 0.3746797 -0.189022 -0.9076816
-183.9533 -1.284003 621.1473 0.4249541 -0.1687893 -0.8893391
-183.3118 -1.316489 621.4482 0.3415608 -0.2020472 -0.9178852
-182.7308 -1.361677 621.6445 0.2828861 -0.2070181 -0.9365463
-181.8917 -1.254433 621.7186 0.2200862 -0.2133526 -0.9518628
-181.3117 -1.317168 621.9183 0.3247108 -0.1706727 -0.9302869
-180.7447 -1.256616 622.1079 0.4052158 -0.1792437 -0.8964775
-179.9928 -1.366145 622.6004 0.3033495 -0.1563458 -0.9399654
-179.4194 -1.337445 622.6964 0.3084604 -0.1690812 -0.9360896
-178.7342 -1.288936 622.8422 0.2357205 -0.1947744 -0.9521023
-178.0829 -1.357642 623.0802 0.325482 -0.2234058 -0.918777
